# .PCD v0.7 - Point Cloud Data file format
VERSION 0.7
FIELDS x y z rgb
SIZE 4 4 4 4
TYPE F F F U
COUNT 1 1 1 1
WIDTH 1052
HEIGHT 1
VIEWPOINT 0 0 0 1 0 0 0
POINTS 1052
DATA ascii
-0.00051729998 0.038623702 0.046832498 4278190080
-0.0288938 0.082100801 0.0456772 4278190080
-0.0599044 0.111127 -0.015858401 4278190080
-0.092072003 0.12830301 0.030246099 4278190080
-0.0437604 0.036566999 -0.025278199 4278190080
-0.047564998 0.037022401 -0.0142792 4278190080
-0.087742202 0.114422 0.0042666998 4278190080
-0.072631001 0.16940901 -0.047027402 4278190080
-0.074052602 0.172196 -0.048044398 4278190080
-0.039333399 0.174116 -0.0079806997 4278190080
-0.092992596 0.121477 0.0272936 4278190080
0.0159395 0.090095498 0.051282801 4278190080
0.035513699 0.090259202 0.039160699 4278190080
-0.0860589 0.113009 0.0032815 4278190080
-0.0549188 0.148123 0.027540799 4278190080
-0.092721701 0.128206 0.0112525 4278190080
-0.067400597 0.0406253 -0.0033406001 4278190080
-0.061044 0.040033299 0.0227114 4278190080
-0.062722497 0.040219501 0.0247088 4278190080
-0.064636998 0.0404566 0.0276669 4278190080
-0.089696899 0.13929801 0.033185001 4278190080
-0.041752301 0.0392031 -0.0263092 4278190080
-0.0468539 0.039742399 -0.0132276 4278190080
-0.072856598 0.114991 -0.0071132001 4278190080
-0.065068901 0.041614801 -0.0052284999 4278190080
-0.068389602 0.042077702 -0.0003093 4278190080
-0.069641702 0.042252399 0.0026904 4278190080
-0.057496801 0.1584 0.0020919 4278190080
-0.065237701 0.041952901 0.033704501 4278190080
-0.072385401 0.15542699 -0.035905901 4278190080
-0.077495001 0.15833899 -0.0149115 4278190080
-0.039457001 0.040376801 -0.027304601 4278190080
-0.072504103 0.146981 0.042386401 4278190080
0.0384501 0.091471702 0.034630898 4278190080
0.0442448 0.090294302 -0.0018031 4278190080
-0.050963402 0.152153 0.0121451 4278190080
-0.0295604 0.158116 0.0009941 4278190080
-0.047755402 0.130992 0.025586501 4278190080
-0.064459801 0.043279499 0.035714 4278190080
-0.077131197 0.155572 -0.0108986 4278190080
-0.041205499 0.041970499 -0.0232873 4278190080
-0.0445267 0.042356901 -0.016305599 4278190080
-0.062798597 0.0441541 -0.0032551 4278190080
-0.0658096 0.044508699 0.0007187 4278190080
-0.067304097 0.044774 0.0046868999 4278190080
-0.0623664 0.044397201 0.0296888 4278190080
-0.063353397 0.044530101 0.031682 4278190080
-0.037184902 0.043002699 -0.0273252 4278190080
-0.0446156 0.043768499 -0.0132939 4278190080
-0.059238899 0.045274299 -0.0043020002 4278190080
-0.063971698 0.0459278 0.0077173999 4278190080
0.038369499 0.0533606 -0.0065485002 4278190080
0.042196199 0.092954896 -0.0047983001 4278190080
0.0229958 0.0375848 0.0332895 4278190080
-0.088711098 0.101017 0.019370301 4278190080
-0.067479096 0.062221602 0.0214031 4278190080
-0.0093342001 0.174192 -0.0247468 4278190080
0.020028301 0.037152398 -0.0066832998 4278190080
0.018232699 0.0369462 -0.015679 4278190080
-0.0101655 0.178729 -0.0267529 4278190080
0.039085802 0.040777899 -0.00061430002 4278190080
0.0247254 0.040563401 0.036302298 4278190080
-0.088878296 0.111909 0.0103621 4278190080
-0.0088764001 0.105922 -0.0227472 4278190080
0.048458401 0.0430177 0.0142199 4278190080
0.0488884 0.043123499 0.0112233 4278190080
0.023136601 0.040426798 -0.0066428999 4278190080
0.016051499 0.039740998 -0.021471901 4278190080
0.018514199 0.041268799 -0.020739799 4278190080
-0.062955402 0.156782 -0.038605899 4278190080
-0.0628784 0.16148999 -0.051587101 4278190080
-0.048666701 0.134012 0.0034020999 4278190080
0.0532979 0.047699299 0.0202039 4278190080
0.054697599 0.0478581 0.0131951 4278190080
0.022548901 0.044480201 -0.0157666 4278190080
0.020450501 0.044376999 -0.0207645 4278190080
-0.062546901 0.169393 -0.0495927 4278190080
-0.033224199 0.15255401 -0.0026207999 4278190080
0.042371798 0.0547731 -0.0065342002 4278190080
0.027587701 0.046582501 -0.0117097 4278190080
0.021292301 0.098299898 -0.0220426 4278190080
-0.0495225 0.143222 0.0095073003 4278190080
0.056282502 0.050817799 0.020186599 4278190080
0.049661301 0.050191201 -0.0027034001 4278190080
-0.042812001 0.14778 0.0034755999 4278190080
-0.0499851 0.13548701 0.001421 4278190080
0.053750601 0.051989499 0.00024739999 4278190080
0.0241275 0.120631 -0.0040143998 4278190080
0.028274599 0.0494546 -0.0167442 4278190080
0.026062399 0.113339 -0.0101501 4278190080
-0.0901834 0.114057 0.040608801 4278190080
-0.0614723 0.15843 -0.029587699 4278190080
0.057198599 0.053692199 0.0051787999 4278190080
0.051475398 0.053119902 -0.0028369001 4278190080
0.031647101 0.051259998 -0.0097239995 4278190080
-0.039191101 0.149452 0.0004054 4278190080
-0.0499986 0.143197 0.012378 4278190080
-0.061475299 0.15685999 -0.0265876 4278190080
-0.062292598 0.14909799 -0.0115749 4278190080
-0.053548001 0.149321 0.0244145 4278190080
-0.017703401 0.056968499 -0.0340386 4278190080
0.0111461 0.101633 -0.021979 4278190080
-0.049618699 0.054694001 -0.0094397003 4278190080
0.030387299 0.052529901 -0.0147333 4278190080
-0.075957797 0.071994998 0.0287387 4278190080
-0.093058601 0.122743 0.0102788 4278190080
0.053783 0.056146599 -0.0017813999 4278190080
-0.094477899 0.122838 0.0232837 4278190080
-0.061876699 0.15376 -0.017582599 4278190080
0.045756198 0.090422601 0.0081698 4278190080
-0.062341001 0.164692 -0.043590799 4278190080
0.055739801 0.057714298 0.00018610001 4278190080
-0.0388087 0.044642501 -0.023423299 4278190080
-0.041138899 0.044859901 -0.021339901 4278190080
-0.059257999 0.046721201 -0.0013273 4278190080
-0.0733101 0.14715999 -0.018857701 4278190080
-0.060365099 0.047088899 0.036688302 4278190080
-0.070502803 0.159578 -0.045933399 4278190080
-0.071883902 0.17364199 -0.052031402 4278190080
-0.053326 0.162717 0.0020474 4278190080
-0.0409685 0.046237499 -0.017322199 4278190080
-0.055958301 0.047812499 -0.0043906001 4278190080
-0.058935899 0.048154201 0.0046724998 4278190080
-0.0435232 0.163746 0.0052427999 4278190080
0.039348401 0.0561243 -0.0056876 4278190080
-0.0258791 0.105846 -0.022482 4278190080
0.0143467 0.058086202 -0.0289605 4278190080
0.0113242 0.058145698 -0.029772401 4278190080
0.0053409999 0.058199901 -0.0308279 4278190080
-0.0046875998 0.058423899 -0.033789799 4278190080
-0.022672299 0.058232199 -0.032191802 4278190080
-0.052597199 0.055954002 -0.0076398002 4278190080
-0.0297371 0.179987 -0.0120259 4278190080
-0.036601901 0.047282401 -0.0203909 4278190080
-0.087836199 0.112676 0.042232201 4278190080
-0.052087799 0.048947498 0.0226481 4278190080
-0.073572204 0.148626 -0.0268487 4278190080
-0.0772499 0.172214 -0.0459981 4278190080
-0.069768101 0.15674201 -0.049913701 4278190080
0.018763499 0.105558 -0.017786499 4278190080
0.046360198 0.069219701 0.0026058999 4278190080
-0.032113198 0.048244901 -0.022342101 4278190080
-0.034606799 0.048382498 -0.018327599 4278190080
-0.057058901 0.050715499 -0.0003744 4278190080
-0.056985501 0.050774701 0.0067061 4278190080
-0.091787197 0.143341 0.0171661 4278190080
-0.052554399 0.050416801 0.0256484 4278190080
-0.0524537 0.0504524 0.030664301 4278190080
-0.041340001 0.171235 -0.0089160996 4278190080
-0.0340151 0.0498932 -0.013349 4278190080
-0.050147898 0.051541202 0.017643999 4278190080
-0.0513914 0.051679801 0.0216239 4278190080
-0.052295901 0.051805701 0.0276471 4278190080
-0.00034649999 0.12560999 -0.0072365999 4278190080
-0.033092201 0.108613 -0.018992299 4278190080
-0.056758799 0.053509001 0.0046696002 4278190080
-0.071827702 0.141507 -0.0080156 4278190080
-0.051813301 0.053175598 0.0296409 4278190080
-0.076913998 0.17371 -0.047912601 4278190080
-0.0314187 0.0525029 -0.0133876 4278190080
-0.0935499 0.12963399 0.019239699 4278190080
-0.039324299 0.172677 -0.0099272998 4278190080
-0.026226001 0.178551 -0.0179991 4278190080
0.029580999 0.090708204 -0.020016599 4278190080
-0.0301034 0.053760201 -0.0193727 4278190080
-0.046882302 0.107031 -0.0193009 4278190080
-0.048470899 0.165547 -0.0049191001 4278190080
-0.071694203 0.1568 -0.039915599 4278190080
-0.088654302 0.102345 0.0123871 4278190080
0.044907901 0.0931824 0.0151569 4278190080
0.060494501 0.059554901 0.015166 4278190080
0.0366139 0.0573407 -0.0087545998 4278190080
0.0308479 0.056769099 -0.0158074 4278190080
0.028470799 0.0565571 -0.0188308 4278190080
0.0258436 0.056328598 -0.0217568 4278190080
-0.0066996999 0.0599043 -0.0346663 4278190080
-0.017240601 0.17862099 -0.025225099 4278190080
-0.065896802 0.109505 -0.0131657 4278190080
-0.0152002 0.174208 -0.025456199 4278190080
-0.075571798 0.16516501 -0.0201548 4278190080
-0.0563673 0.0575771 -0.0014196 4278190080
-0.057121299 0.057642199 0.00058009999 4278190080
-0.0566159 0.057355799 0.0107416 4278190080
-0.0736067 0.154075 -0.0289008 4278190080
-0.029512299 0.056510702 -0.021402599 4278190080
-0.053918999 0.058724198 -0.0074176001 4278190080
-0.055839501 0.058913101 -0.0044052 4278190080
-0.090752199 0.13647801 0.0191999 4278190080
-0.0758292 0.0935231 -0.0136873 4278190080
-0.039188799 0.168166 -0.0121398 4278190080
-0.088779397 0.151473 0.0131594 4278190080
-0.081856303 0.15004601 0.0022064 4278190080
-0.026476599 0.057607699 -0.028423199 4278190080
0.0084060999 0.094978303 -0.028563799 4278190080
-0.090065397 0.13242801 0.033222999 4278190080
-0.0426623 0.0592741 -0.0122692 4278190080
-0.049631201 0.0590927 -0.0108209 4278190080
-0.062934197 0.109643 -0.0151294 4278190080
-0.046090599 0.15615401 -0.0078817997 4278190080
-0.064268596 0.17104299 -0.060984399 4278190080
-0.0778777 0.117832 -0.0059929001 4278190080
0.0022879001 0.062666602 -0.033537399 4278190080
-0.0047074002 0.062777199 -0.035213701 4278190080
-0.0160775 0.128732 0.0124337 4278190080
-0.062251199 0.17562699 -0.056629799 4278190080
0.060104799 0.060896698 0.0071598999 4278190080
0.035563901 0.058664002 -0.0117324 4278190080
0.0295964 0.058047298 -0.017827399 4278190080
0.031287398 0.108108 -0.0105276 4278190080
0.0125423 0.120941 -0.012332 4278190080
-0.0272788 0.035056699 0.051558699 4278190080
0.060745899 0.062341299 0.0091501996 4278190080
0.056298099 0.061942901 0.0011209 4278190080
0.038913399 0.0603588 -0.0067734998 4278190080
0.0368862 0.060165599 -0.0107732 4278190080
-0.022629401 0.157855 -0.0042273998 4278190080
0.0075801001 0.121578 -0.0129987 4278190080
-0.025563199 0.0589456 -0.0304089 4278190080
-0.0662857 0.0625946 -0.0014188 4278190080
-0.075808801 0.090634599 -0.0139136 4278190080
-0.0277397 0.060553599 -0.0284245 4278190080
-0.028487301 0.060633302 -0.026411399 4278190080
0.0063050999 0.097007699 -0.026737999 4278190080
-0.081008501 0.13680799 -0.0028691001 4278190080
-0.076674998 0.15407699 0.0001074 4278190080
-0.071126401 0.142566 -0.0097278999 4278190080
0.0064842999 0.041323099 0.0455852 4278190080
-0.061488599 0.15686201 -0.0235899 4278190080
0.060067002 0.063670799 0.0191758 4278190080
0.060013302 0.063658699 0.0071489001 4278190080
-0.0798641 0.145899 -0.0018191 4278190080
-0.086782098 0.10632 0.010369 4278190080
0.034897801 0.061378699 -0.0138096 4278190080
0.032044701 0.061133999 -0.017767601 4278190080
0.0276877 0.060737301 -0.0218456 4278190080
-0.030938501 0.062279802 -0.0204312 4278190080
-0.031826101 0.062361501 -0.0184459 4278190080
-0.070705198 0.065633103 -0.00050239998 4278190080
-0.072168201 0.065728202 0.0014712 4278190080
-0.074921802 0.066145897 0.0085725002 4278190080
-0.085005596 0.146006 0.0061797001 4278190080
0.039526701 0.063230202 -0.0077665001 4278190080
0.037815001 0.063049801 -0.0108066 4278190080
0.029446701 0.0623083 -0.019850099 4278190080
-0.062753104 0.161513 -0.047589701 4278190080
-0.072118603 0.063710801 0.0173676 4278190080
-0.052703999 0.143169 0.0214165 4278190080
-0.062289301 0.15064999 -0.0135783 4278190080
0.060412999 0.066473298 0.017165 4278190080
0.041079499 0.064766303 -0.0047837999 4278190080
0.032683998 0.064012103 -0.0177767 4278190080
-0.088578001 0.151544 0.0220955 4278190080
-0.0197383 0.108898 -0.021332201 4278190080
0.045017701 0.087544702 0.0001849 4278190080
-0.069909997 0.11224 -0.0100103 4278190080
0.0084945997 0.041284598 0.045315899 4278190080
-0.033474199 0.063850202 -0.015538 4278190080
-0.070487 0.066960603 -0.0025327001 4278190080
-0.072264403 0.067137398 -0.00051560003 4278190080
-0.075906098 0.067503497 0.0096760001 4278190080
-0.038888801 0.109926 -0.019043 4278190080
-0.063039497 0.136976 -0.0074124001 4278190080
-0.0012203 0.093831196 -0.033437598 4278190080
-0.031794801 0.065181397 -0.020436 4278190080
0.0169002 0.103075 -0.0211457 4278190080
-0.060926899 0.15584899 0.021944899 4278190080
-0.072251201 0.17082401 -0.049023502 4278190080
0.025852101 0.119872 -0.0031950001 4278190080
-0.061896399 0.108239 -0.0162152 4278190080
0.00029160001 0.064133801 -0.034343001 4278190080
-0.0017086 0.064135604 -0.0344906 4278190080
-0.0197383 0.064190999 -0.036212601 4278190080
-0.021716001 0.064136297 -0.035401698 4278190080
-0.045652401 0.062178802 -0.0131898 4278190080
-0.048654601 0.062059101 -0.0122264 4278190080
-0.054559801 0.061659701 -0.0074577001 4278190080
-0.057653099 0.061270401 -0.0037209 4278190080
-0.059608102 0.061416201 -0.0028969999 4278190080
-0.063538402 0.061476 -0.0019187001 4278190080
0.0102401 0.13009 0.0220074 4278190080
0.022316201 0.064955503 -0.026373301 4278190080
-0.0047204001 0.065574497 -0.0349603 4278190080
-0.0117258 0.065680698 -0.036578301 4278190080
-0.0356782 0.063659303 -0.0138055 4278190080
-0.0536272 0.063222498 -0.0092770001 4278190080
-0.059742 0.156334 0.0064109 4278190080
0.060415 0.0678562 0.0151973 4278190080
0.060423501 0.067862503 0.0131519 4278190080
0.060054 0.067830302 0.0101401 4278190080
-0.090718403 0.115992 0.0263684 4278190080
0.0289004 0.065083697 -0.0199869 4278190080
-0.090522498 0.118622 0.0053153001 4278190080
-0.071669303 0.147461 -0.0281971 4278190080
-0.065976001 0.062466498 0.023268601 4278190080
0.037777402 0.067277402 -0.012792 4278190080
0.0357587 0.067098998 -0.014806 4278190080
-0.093464904 0.120072 0.0123034 4278190080
-0.062455401 0.1522 -0.0115838 4278190080
-0.053092301 0.14313801 0.0243879 4278190080
-0.077077501 0.0703016 0.0035131001 4278190080
-0.044888798 0.108464 -0.018926499 4278190080
-0.070851997 0.100833 -0.0142398 4278190080
0.0072717001 0.0667978 -0.032154098 4278190080
0.0012676 0.066917501 -0.033911299 4278190080
-0.0077314 0.067017801 -0.0355816 4278190080
-0.069605403 0.110911 0.042429298 4278190080
0.040726401 0.099994697 0.0251764 4278190080
-0.0872126 0.146051 0.0082491003 4278190080
0.0373688 0.102607 -0.0078526 4278190080
-0.088850103 0.102361 0.0153809 4278190080
-0.085593604 0.143251 0.0071911002 4278190080
-0.093916297 0.120093 0.0142993 4278190080
-0.0624367 0.153758 -0.0135798 4278190080
-0.062033299 0.15373801 -0.0275809 4278190080
-0.0733601 0.156855 -0.029913399 4278190080
-0.057085399 0.136926 -0.0050082002 4278190080
0.0451716 0.088978201 0.018164299 4278190080
-0.086872399 0.106357 0.0173489 4278190080
0.030016599 0.070830397 -0.020782299 4278190080
-0.077339299 0.15280201 -0.0018868 4278190080
-0.071361497 0.158186 -0.0419305 4278190080
-0.0254081 0.18291201 -0.0140439 4278190080
-0.0176742 0.109826 -0.020315001 4278190080
-0.073422603 0.071164697 -0.0066449 4278190080
-0.080936 0.072082601 0.0105433 4278190080
-0.080939204 0.072101198 0.0145438 4278190080
-0.073853999 0.100736 -0.0128364 4278190080
-0.048659898 0.064988598 -0.0131055 4278190080
-0.061619598 0.156864 -0.0215888 4278190080
0.0442902 0.0875035 0.024147101 4278190080
0.045664299 0.087602802 0.0121678 4278190080
0.0438288 0.086048298 -0.0037912 4278190080
-0.064652197 0.064255401 -0.0050333999 4278190080
-0.062495898 0.060792901 0.0219134 4278190080
-0.063920498 0.112438 -0.0133308 4278190080
0.025290299 0.067589298 -0.0238235 4278190080
-0.0017277 0.068348199 -0.034353301 4278190080
-0.0097230002 0.068462104 -0.036253098 4278190080
-0.089701697 0.151503 0.017122401 4278190080
-0.074981898 0.151307 -0.0268775 4278190080
-0.0279464 0.068989202 -0.032513 4278190080
-0.032701999 0.069479696 -0.021455999 4278190080
0.0188735 0.102787 -0.0208351 4278190080
-0.076549701 0.072847903 -0.0056024999 4278190080
-0.078476198 0.073141597 -0.0004733 4278190080
-0.090875499 0.14745501 0.0141474 4278190080
-0.077190503 0.152834 -0.0038916999 4278190080
-0.029348399 0.070526399 -0.0315108 4278190080
-0.075811103 0.074187197 -0.0076052002 4278190080
-0.079787701 0.074614197 -0.0014798 4278190080
-0.062913999 0.11807 -0.0099037001 4278190080
-0.091338001 0.14476 0.0251578 4278190080
-0.071937501 0.16298001 -0.0125698 4278190080
-0.0466973 0.066527799 -0.0146823 4278190080
-0.028467899 0.071857803 -0.0335433 4278190080
-0.031889699 0.072182097 -0.027508499 4278190080
0.0139874 0.092457198 -0.0278842 4278190080
-0.078794897 0.075827703 -0.0055710999 4278190080
-0.0536948 0.066160299 -0.0107375 4278190080
-0.082849599 0.117685 -0.0027156 4278190080
-0.081386998 0.11145 0.044671699 4278190080
-0.0121993 0.177175 -0.028880799 4278190080
-0.0227683 0.069906302 -0.037369698 4278190080
-0.024745001 0.069806099 -0.0360534 4278190080
-0.044694901 0.068071298 -0.0159309 4278190080
-0.091327898 0.147458 0.016147999 4278190080
-0.0229763 0.094536699 -0.030290101 4278190080
-0.075348496 0.151324 -0.023879301 4278190080
-0.053682301 0.067846298 -0.0129474 4278190080
-0.066661403 0.067226097 -0.0064802999 4278190080
0.0021015999 0.111597 -0.0202587 4278190080
-0.0331471 0.172636 -0.0149853 4278190080
0.0252898 0.070481502 -0.0246106 4278190080
-0.037670299 0.125135 -0.0063220998 4278190080
0.0181222 0.116444 -0.0134944 4278190080
-0.077608302 0.077089302 -0.0076001999 4278190080
-0.061466102 0.174127 -0.058598101 4278190080
-0.040043399 0.149481 0.00242 4278190080
-0.073055901 0.14548001 -0.015959 4278190080
0.046451699 0.075053401 0.0071894 4278190080
0.0328626 0.0738919 -0.017820301 4278190080
-0.062219001 0.164671 -0.050589401 4278190080
-0.0705529 0.062829398 0.018473599 4278190080
-0.065480098 0.067538798 0.0330326 4278190080
0.0365014 0.075614199 -0.0127863 4278190080
0.0352588 0.075504899 -0.0148105 4278190080
0.030847499 0.075143903 -0.0207339 4278190080
0.042517699 0.066061698 -0.0022197999 4278190080
-0.091374502 0.142001 0.021160699 4278190080
0.038828298 0.102661 -0.0048185 4278190080
0.04631 0.0778469 0.0081839003 4278190080
0.0451032 0.077743702 0.00020910001 4278190080
0.044440102 0.077689499 -0.0017728 4278190080
0.037753802 0.077128798 -0.0117747 4278190080
0.032669999 0.0767015 -0.0187757 4278190080
-0.0929242 0.120168 0.0332909 4278190080
-0.076592699 0.077072598 0.033045299 4278190080
-0.043713 0.069559202 -0.0168487 4278190080
-0.047675598 0.069431201 -0.0151035 4278190080
-0.059686098 0.069359101 -0.0143393 4278190080
-0.061678398 0.069236703 -0.0132074 4278190080
-0.065619901 0.069055401 -0.0100807 4278190080
-0.0829923 0.13093901 -0.0034137999 4278190080
-0.046506099 0.042523202 0.043804199 4278190080
-0.088488698 0.122612 0.0012913001 4278190080
0.036085699 0.078405403 -0.0147648 4278190080
-0.0927402 0.125562 0.0292626 4278190080
-0.071113899 0.162407 -0.0449498 4278190080
-0.083935902 0.102045 -0.0026181 4278190080
-0.062640697 0.163129 -0.029590299 4278190080
0.0463861 0.080655999 0.0111753 4278190080
0.045340799 0.080554098 0.00121 4278190080
0.044698399 0.080498397 -0.00078 4278190080
0.0419394 0.080286399 -0.0067824 4278190080
0.039133199 0.080065504 -0.0117735 4278190080
-0.094308503 0.12145 0.0162821 4278190080
-0.0621913 0.16312499 -0.040592201 4278190080
-0.049725201 0.14165699 0.0053848 4278190080
0.045976002 0.082020901 0.016170001 4278190080
0.046259001 0.082039498 0.0071847001 4278190080
0.034749798 0.081124999 -0.0176886 4278190080
-0.077616699 0.145877 -0.0038468 4278190080
-0.089143403 0.13790201 0.029193601 4278190080
-0.086410597 0.136323 0.0022308 4278190080
0.044284899 0.094548501 0.018156599 4278190080
0.0462595 0.083441399 0.0091760997 4278190080
0.043763399 0.083235398 -0.0028102 4278190080
-0.0286351 0.091821097 -0.0275955 4278190080
-0.074091002 0.144362 -0.0088857999 4278190080
-0.093265504 0.120203 0.038288999 4278190080
-0.061257899 0.167808 -0.057600699 4278190080
-0.054077201 0.146211 0.025391599 4278190080
-0.046700999 0.144949 0.003455 4278190080
0.045218501 0.084753498 0.0032044 4278190080
-0.038118601 0.128235 0.005845 4278190080
-0.092098899 0.117453 0.031314 4278190080
-0.0625742 0.17727 -0.0581696 4278190080
-0.089185901 0.139294 0.037159499 4278190080
-0.077010699 0.15280899 -0.0068879002 4278190080
0.0157867 0.112048 -0.0167369 4278190080
-0.030539 0.074850701 -0.0325674 4278190080
-0.046599898 0.111104 -0.017550901 4278190080
-0.0152794 0.114388 -0.017154001 4278190080
-0.067634799 0.070485197 -0.0103532 4278190080
-0.010458 0.095380798 -0.033094902 4278190080
-0.075589798 0.079638898 -0.010614 4278190080
-0.086106397 0.080613799 0.017496601 4278190080
-0.075691901 0.143067 -0.0058283 4278190080
-0.072041698 0.156813 -0.0379146 4278190080
-0.020289101 0.184471 -0.021077201 4278190080
0.028263601 0.073195003 -0.022942901 4278190080
0.0132662 0.0737717 -0.03084 4278190080
-0.0681573 0.180556 -0.054370701 4278190080
-0.0539979 0.15316799 0.0186815 4278190080
-0.070279703 0.180333 -0.052262399 4278190080
-0.070187896 0.175082 -0.0550269 4278190080
-0.034630399 0.079471 -0.023546301 4278190080
-0.080011196 0.082684897 -0.0075630001 4278190080
-0.084569797 0.083187699 0.0245094 4278190080
-0.073019199 0.15684301 -0.031917602 4278190080
-0.0373694 0.173381 -0.0015032 4278190080
-0.055947602 0.15395901 0.025206899 4278190080
-0.055831701 0.154614 0.0193814 4278190080
-0.073174603 0.154066 -0.0319096 4278190080
-0.054929301 0.15482301 0.0139773 4278190080
-0.084147803 0.15365 0.0123539 4278190080
0.0030069 0.099142402 0.049182002 4278190080
-0.066033296 0.155202 -0.0045854999 4278190080
-0.052017599 0.13668101 0.027135599 4278190080
-0.069522098 0.143851 -0.0150076 4278190080
-0.048652701 0.16275901 0.0059985998 4278190080
-0.083613999 0.154208 0.0184012 4278190080
-0.067957401 0.176267 -0.0485208 4278190080
0.0322433 0.089661703 -0.0189276 4278190080
-0.077715002 0.085278198 -0.0115916 4278190080
-0.0137664 0.074281201 -0.038645599 4278190080
-0.015766701 0.074296601 -0.038962699 4278190080
-0.020775 0.074280299 -0.039025899 4278190080
-0.062532902 0.15555499 0.0257427 4278190080
-0.0141538 0.096509203 0.052175 4278190080
0.015755801 0.12718201 0.025474999 4278190080
-0.067171998 0.17454299 -0.046798602 4278190080
-0.092856497 0.129591 0.0132418 4278190080
-0.079234697 0.153789 0.028772499 4278190080
-0.056728601 0.155485 0.0133042 4278190080
-0.0794589 0.15531699 0.0154304 4278190080
-0.079790398 0.15256301 0.031614698 4278190080
-0.078243896 0.151233 0.035189699 4278190080
-0.066349797 0.172859 -0.045053899 4278190080
-0.070769303 0.17676701 -0.0466577 4278190080
0.025223101 0.117755 -0.0069117001 4278190080
-0.046711002 0.072368301 -0.0164352 4278190080
-0.069632001 0.071947202 -0.0104624 4278190080
-0.0414965 0.042414501 0.042593401 4278190080
0.0062392 0.075428203 -0.034362901 4278190080
-0.0007573 0.075519003 -0.035921201 4278190080
-0.0097693 0.075652502 -0.038033102 4278190080
-0.024753001 0.075569503 -0.037692301 4278190080
-0.027745999 0.075395398 -0.035656799 4278190080
-0.040130898 0.16068099 -0.0117333 4278190080
-0.073668197 0.073093802 -0.0083243996 4278190080
-0.041144699 0.163664 -0.0114686 4278190080
0.0142529 0.076530397 -0.0302113 4278190080
-0.071423702 0.153981 -0.044893298 4278190080
-0.087721698 0.151511 0.024071001 4278190080
-0.0147745 0.077070102 -0.038443599 4278190080
-0.023487 0.043537199 0.053601701 4278190080
0.023695899 0.120687 0.029843399 4278190080
-0.087442599 0.110454 0.0173412 4278190080
0.020723499 0.123161 0.028727399 4278190080
-0.068760999 0.17367999 -0.0560297 4278190080
0.016659399 0.125691 0.027245 4278190080
-0.057135701 0.158766 0.0059588002 4278190080
-0.064310901 0.169365 -0.042881802 4278190080
-0.068421803 0.173931 -0.044368502 4278190080
-0.074938402 0.177982 -0.046777301 4278190080
-0.084955499 0.110375 0.0243559 4278190080
-0.066484801 0.153437 0.033183798 4278190080
-0.059280202 0.154415 0.028360801 4278190080
-0.0494828 0.135763 0.022190699 4278190080
-0.072617598 0.074759401 -0.0108396 4278190080
-0.074418403 0.069256 0.026176101 4278190080
0.0001145 0.110154 -0.020162299 4278190080
-0.084931098 0.098003201 -0.001581 4278190080
-0.083683699 0.15138499 0.030352799 4278190080
-0.0117787 0.078457102 -0.0380559 4278190080
-0.0167857 0.0784752 -0.038558699 4278190080
-0.0451365 0.16064399 -0.0089256 4278190080
-0.072725803 0.15743101 -0.0026527001 4278190080
-0.031403501 0.121359 0.0260922 4278190080
-0.087845199 0.096803002 0.0044586998 4278190080
-0.063945301 0.16774701 -0.0398404 4278190080
-0.067207597 0.171872 -0.041005101 4278190080
0.0024953999 0.0427747 0.045899302 4278190080
-0.046181899 0.130936 0.022023899 4278190080
-0.0171117 0.123425 0.029711399 4278190080
-0.089239903 0.14067601 0.0351725 4278190080
-0.073105901 0.151228 -0.037885301 4278190080
-0.079165801 0.0990564 -0.0086329998 4278190080
-0.076572999 0.153595 0.0311713 4278190080
-0.0299566 0.122268 0.023612499 4278190080
-0.0033853999 0.100168 0.048377302 4278190080
-0.080771402 0.153393 0.0062818001 4278190080
-0.0246455 0.12641799 0.012252 4278190080
-0.075274698 0.175704 -0.042592101 4278190080
0.056919299 0.071009196 0.0071486002 4278190080
-0.088464104 0.088771597 0.0054760999 4278190080
-0.089280799 0.088864297 0.0124572 4278190080
-0.077611499 0.15005 -0.0049035 4278190080
-0.0915979 0.14611401 0.0211525 4278190080
-0.029137701 0.086090803 -0.033590399 4278190080
0.026885699 0.117842 -0.0049808999 4278190080
-0.082525 0.089674197 -0.0066053001 4278190080
-0.089163497 0.090178601 0.0094574997 4278190080
-0.049398199 0.113885 -0.016460299 4278190080
-0.0538886 0.16124301 -0.00091659999 4278190080
-0.0311219 0.087674998 -0.0275557 4278190080
-0.017229199 0.104564 -0.022745 4278190080
-0.078056999 0.090759903 -0.0115869 4278190080
-0.085710198 0.091282196 0.00046829999 4278190080
-0.089653499 0.0916031 0.0184402 4278190080
-0.0537473 0.076817997 -0.0192258 4278190080
-0.056745101 0.076800697 -0.0192338 4278190080
-0.031271201 0.12537301 0.0025104 4278190080
0.035482399 0.111268 -0.000157 4278190080
0.0120538 0.090786196 -0.030174499 4278190080
0.029124301 0.117712 -0.0024186 4278190080
0.0014194 0.122927 0.034754202 4278190080
-0.064041503 0.16732199 -0.036999401 4278190080
-0.065980896 0.16980299 -0.037696 4278190080
-0.067434803 0.171149 -0.038225301 4278190080
-0.0946685 0.124165 0.019266499 4278190080
-0.027602499 0.088851601 -0.033595201 4278190080
-0.085688598 0.092624597 -0.0015624 4278190080
-0.031317301 0.115081 -0.015796799 4278190080
0.0574282 0.0681585 0.0037724001 4278190080
0.0248385 0.107021 -0.0153684 4278190080
0.029122399 0.0877617 -0.0209279 4278190080
0.031762298 0.093857698 -0.0173357 4278190080
0.034301501 0.092578799 -0.015976099 4278190080
-0.018781099 0.119777 -0.0107944 4278190080
0.0064635002 0.117501 -0.016600201 4278190080
-0.0117599 0.104933 -0.0231377 4278190080
0.0119628 0.111848 -0.018534999 4278190080
-0.033500999 0.113967 -0.0166209 4278190080
0.034234598 0.085257597 -0.018314701 4278190080
-0.036531001 0.116238 -0.0149852 4278190080
0.052851502 0.059223201 -0.0032363001 4278190080
-0.0033575001 0.11894 -0.0140663 4278190080
-0.022551199 0.093369402 -0.0331106 4278190080
0.0144377 0.119508 -0.0127985 4278190080
-0.0130193 0.115677 -0.016536999 4278190080
-0.0249431 0.090738401 -0.0344432 4278190080
0.023682101 0.082405202 -0.025401101 4278190080
0.030373299 0.115414 -0.0043874001 4278190080
-0.029287601 0.113893 -0.0165575 4278190080
-0.031196199 0.047548901 -0.0247586 4278190080
-0.027019 0.123094 -0.0042122002 4278190080
-0.018322401 0.18495201 -0.0232094 4278190080
-0.016896401 0.123328 -0.0065652002 4278190080
-0.017503601 0.0357848 -0.0270478 4278190080
0.0176793 0.0852191 -0.0283526 4278190080
-0.0133229 0.0978873 -0.0277326 4278190080
-0.0366574 0.173333 -0.0118804 4278190080
-0.032363299 0.17543299 -0.0143069 4278190080
-0.023595 0.180085 -0.0196757 4278190080
0.0527591 0.069346704 0.0025031001 4278190080
0.0235801 0.11767 -0.0088139996 4278190080
-0.0118847 0.117889 -0.0148923 4278190080
0.0302906 0.078712903 -0.0208549 4278190080
0.0242629 0.079016097 -0.0251629 4278190080
0.034202602 0.113899 0.0008405 4278190080
-0.089329801 0.096955501 0.0104169 4278190080
-0.0099237999 0.097544 0.052137598 4278190080
-0.0423586 0.123855 0.023588501 4278190080
-0.085740998 0.151793 0.026648199 4278190080
-0.0649985 0.156251 0.0205012 4278190080
-0.072956003 0.173805 -0.038839899 4278190080
0.0072269998 0.079625197 -0.033878502 4278190080
0.0052306 0.079631202 -0.0340387 4278190080
-0.030123699 0.12585001 0.013192 4278190080
-0.0277551 0.121254 0.025890199 4278190080
-0.017548401 0.124749 0.0265509 4278190080
0.012678 0.130036 0.018617401 4278190080
0.0312312 0.117425 0.0012372 4278190080
0.0280536 0.119554 5.1300001e-05 4278190080
-0.0888687 0.094228499 0.0104297 4278190080
0.0012257 0.079703502 -0.035277899 4278190080
-0.0077905999 0.079880998 -0.038024299 4278190080
-0.0064900001 0.112763 0.041502502 4278190080
-0.066103101 0.169296 -0.034874301 4278190080
-0.075831898 0.173116 -0.038532302 4278190080
-0.064485803 0.15289401 -0.002507 4278190080
0.049876999 0.072745703 0.0089357998 4278190080
-0.032925799 0.120263 0.028534601 4278190080
-0.087032899 0.152942 0.018754501 4278190080
0.0221671 0.123584 -0.00068110001 4278190080
-0.084279403 0.115636 -0.00074779999 4278190080
-0.0781065 0.094858497 -0.0115273 4278190080
-0.053175401 0.160014 0.0073362999 4278190080
-0.070184499 0.158483 -0.0046537002 4278190080
-0.063950099 0.166025 -0.032671899 4278190080
-0.069671199 0.171569 -0.034759399 4278190080
-0.074365601 0.172848 -0.036504701 4278190080
0.0549936 0.073201902 0.0123756 4278190080
0.046556201 0.075302899 0.0092211999 4278190080
-0.076844104 0.113421 -0.0045917998 4278190080
-0.089167103 0.094254903 0.0124334 4278190080
-0.078418098 0.163881 -0.026951199 4278190080
0.0130051 0.123122 0.033095799 4278190080
-0.0123976 0.099102601 0.048206799 4278190080
-0.066994503 0.16937099 -0.0323347 4278190080
0.0587398 0.070924498 0.0152557 4278190080
0.0564285 0.072725303 0.0143999 4278190080
-0.044762101 0.126552 0.021157401 4278190080
-0.028342299 0.118847 0.030215999 4278190080
0.039149702 0.108397 0.0083758999 4278190080
-0.068728901 0.077940099 -0.016135899 4278190080
-0.072666697 0.077737898 -0.0132872 4278190080
-0.091233097 0.114706 0.038214099 4278190080
-0.091237403 0.14058299 0.016170301 4278190080
-0.070449904 0.15402199 0.031766102 4278190080
-0.032316901 0.126646 0.013854 4278190080
-0.051434301 0.064780802 0.034888498 4278190080
-0.0715276 0.14003 0.047223799 4278190080
-0.0137973 0.081348002 -0.039191101 4278190080
-0.0168011 0.081346497 -0.039317399 4278190080
-0.020807801 0.081313998 -0.039065 4278190080
-0.0564899 0.0440403 0.044834498 4278190080
-0.071689002 0.17151301 -0.032650501 4278190080
0.048827101 0.073396303 0.0130056 4278190080
0.0310854 0.118732 0.0069065001 4278190080
0.0233024 0.124378 0.0040149 4278190080
-0.092587098 0.117342 0.0103086 4278190080
-0.074363701 0.153685 0.031926699 4278190080
-0.065784298 0.16728801 -0.0290298 4278190080
-0.077019803 0.170132 -0.03325 4278190080
-0.061859399 0.154827 0.0038523001 4278190080
-0.047591101 0.16342799 -0.0067003998 4278190080
-0.044471599 0.16533899 -0.0088716 4278190080
-0.027858 0.034317601 -0.029660899 4278190080
-0.0208348 0.095618501 -0.0294009 4278190080
-0.058964301 0.15508001 0.0013052 4278190080
-0.054179799 0.157923 -0.0021094 4278190080
-0.0014290001 0.112626 -0.0193593 4278190080
0.0295159 0.107768 -0.0121736 4278190080
-0.061520301 0.153356 0.0013073999 4278190080
0.0197946 0.0872171 -0.0264236 4278190080
0.0090786004 0.112423 -0.019136701 4278190080
-0.010479 0.0991873 -0.025079999 4278190080
-0.0172265 0.113695 -0.018419599 4278190080
-0.035668898 0.117866 -0.0126779 4278190080
-0.0030131 0.099409498 -0.0252863 4278190080
-0.057935201 0.15302099 -0.00046730001 4278190080
-0.0073469998 0.095287703 -0.032972701 4278190080
-0.045759499 0.079722397 -0.0196258 4278190080
-0.042227201 0.127744 0.016162399 4278190080
-0.033010401 0.126012 0.018028701 4278190080
0.0278403 0.121636 0.0071165999 4278190080
0.017949499 0.12733699 0.003451 4278190080
0.0153058 0.12841199 0.0024896001 4278190080
0.0175304 0.120577 0.033346299 4278190080
-0.0205217 0.0448565 0.052862301 4278190080
-0.0677628 0.079419002 -0.0170759 4278190080
0.0133657 0.116504 -0.0155461 4278190080
2.6899999e-05 0.099157803 -0.0250032 4278190080
0.0273648 0.102724 -0.016783901 4278190080
0.032256801 0.081432097 -0.019323399 4278190080
0.0282219 0.081612498 -0.0219304 4278190080
-0.0047988002 0.082678303 -0.037692498 4278190080
-0.0380808 0.048320498 -0.0131774 4278190080
0.0049437 0.098417602 -0.0242128 4278190080
-0.0028252001 0.102957 -0.0229221 4278190080
0.0225251 0.100664 -0.020548699 4278190080
0.0260175 0.099139698 -0.018962599 4278190080
0.0239811 0.109404 -0.0139261 4278190080
0.023573101 0.114695 -0.0116124 4278190080
-0.060738001 0.148827 -0.0018026 4278190080
-0.0085357996 0.044404 0.048495598 4278190080
-0.0271072 0.11707 -0.0138992 4278190080
-0.0268119 0.082528003 -0.0368734 4278190080
-0.037766799 0.081261501 -0.0209367 4278190080
-0.039766401 0.081201501 -0.0202928 4278190080
-0.042764399 0.081220202 -0.0203472 4278190080
-0.069257297 0.169753 -0.028877901 4278190080
-0.071983099 0.170733 -0.029870201 4278190080
0.058561701 0.069248699 0.019596299 4278190080
-0.083083101 0.15276299 0.0275295 4278190080
0.0202619 0.12650999 0.0057271002 4278190080
-0.087222703 0.094108596 0.0033505999 4278190080
-0.093518302 0.117402 0.0193034 4278190080
-0.092472903 0.117499 0.040302102 4278190080
0.0102651 0.12870599 0.026330899 4278190080
-0.020586099 0.122762 0.028427601 4278190080
-0.0660244 0.16655301 -0.0262486 4278190080
-0.0762918 0.169333 -0.0300921 4278190080
0.054418601 0.072563298 0.0195702 4278190080
0.046274301 0.077512197 0.016536601 4278190080
-0.094018899 0.11877 0.017299701 4278190080
-0.0073169 0.12818199 0.0272242 4278190080
-0.057982899 0.147131 -0.0018633 4278190080
-0.0045575998 0.115688 -0.0165869 4278190080
0.0111864 0.115382 -0.0163281 4278190080
-0.032891098 0.122131 -0.0071226 4278190080
-0.0013146 0.122836 -0.0102349 4278190080
-0.0618136 0.0453397 -0.0017247 4278190080
0.040887699 0.092806898 -0.0081772003 4278190080
0.0044518998 0.116712 -0.0177471 4278190080
0.0282191 0.094191298 -0.0197138 4278190080
0.038818099 0.104067 -0.0021037001 4278190080
-0.072717898 0.080664702 -0.0147187 4278190080
-0.054904599 0.102722 -0.0198351 4278190080
-0.054020599 0.147182 -0.0016614 4278190080
-0.0108141 0.084123902 -0.038536999 4278190080
-0.0547757 0.082655698 -0.0215494 4278190080
0.0129127 0.129715 0.00446 4278190080
0.0100369 0.13032401 0.0034097999 4278190080
-0.085946999 0.104892 0.0043798001 4278190080
-0.092256598 0.126816 0.0092657004 4278190080
-0.0281162 0.18139701 -0.0109687 4278190080
-0.071326703 0.16966499 -0.0267525 4278190080
-0.077868097 0.101964 -0.0092887003 4278190080
-0.0058181998 0.085469402 -0.037520099 4278190080
-0.078497604 0.148406 0.0395361 4278190080
0.0039491002 0.100531 -0.0224465 4278190080
-0.027352201 0.093951799 -0.025730301 4278190080
0.0003595 0.090710297 -0.034206599 4278190080
0.018776 0.122594 -0.0061273002 4278190080
-0.0052744001 0.124342 -0.0098487996 4278190080
-0.0157593 0.121529 -0.0086415 4278190080
-0.0135961 0.12464 -0.0060083 4278190080
-0.050408699 0.038525298 -0.0116443 4278190080
0.0381644 0.088707797 -0.0138852 4278190080
-0.057725199 0.156918 0.0085314 4278190080
0.031329401 0.118714 0.0127065 4278190080
0.023006801 0.12535501 0.0096012 4278190080
0.020493601 0.1267 0.0086639998 4278190080
-0.073544003 0.177863 -0.054030702 4278190080
-0.027115099 0.122681 0.023141401 4278190080
-0.064282797 0.163385 -0.022738401 4278190080
-0.066291302 0.165749 -0.023474701 4278190080
-0.0189924 0.127884 0.015741499 4278190080
0.048834901 0.0718069 0.020408999 4278190080
-0.018734399 0.12697899 0.020223601 4278190080
-0.084024198 0.151932 0.0065795998 4278190080
0.038043201 0.109702 0.016604099 4278190080
0.028871899 0.121048 0.0132077 4278190080
0.0122318 0.130219 0.0070475 4278190080
0.0103285 0.13065401 0.0063531999 4278190080
-0.0039237002 0.129832 0.0010464001 4278190080
-0.093111299 0.12693299 0.027260801 4278190080
-0.0275761 0.12576599 0.0126577 4278190080
-0.086642697 0.151554 0.0100877 4278190080
-0.0296632 0.18017399 -0.0086722998 4278190080
-0.0635342 0.16157299 -0.0210278 4278190080
-0.00095339998 0.100702 0.0462281 4278190080
-0.0546261 0.151324 0.027198199 4278190080
-0.035130501 0.12763201 0.0098772999 4278190080
-0.0192069 0.125855 0.0229991 4278190080
-0.0107155 0.127812 0.026009699 4278190080
-0.037992001 0.12831201 0.0088331997 4278190080
0.032067601 0.117774 0.0158308 4278190080
0.0255167 0.123738 0.0133816 4278190080
0.0189844 0.127654 0.0109555 4278190080
0.0146407 0.129582 0.0093591996 4278190080
-0.036915001 0.17554601 -0.0089824004 4278190080
0.025598001 0.061049301 -0.0236458 4278190080
-0.055451699 0.044482902 -0.0071986001 4278190080
0.0094151003 0.117047 -0.0161127 4278190080
-0.044437401 0.124419 -0.0095453998 4278190080
-0.016491899 0.096881397 -0.028692501 4278190080
0.014854 0.103191 -0.021265 4278190080
0.0096437996 0.120482 -0.0138306 4278190080
-0.0074343998 0.120242 -0.0134406 4278190080
-0.060465999 0.14331099 -0.0037920999 4278190080
-0.056815099 0.14219099 -0.0025636 4278190080
0.033858299 0.105892 -0.0101458 4278190080
0.0095645003 0.122301 -0.0117968 4278190080
0.0458479 0.072409198 0.0033342 4278190080
0.016821999 0.123899 -0.0055431002 4278190080
0.054687601 0.059769101 -0.0017389 4278190080
-0.0063592 0.0931082 -0.034737598 4278190080
-0.047084399 0.151656 -0.0051945001 4278190080
0.0122037 0.0864617 -0.0308592 4278190080
-0.031760398 0.120314 -0.0092131998 4278190080
-0.038334299 0.121902 -0.0109317 4278190080
0.025940301 0.1091 -0.0135959 4278190080
0.051332399 0.061385799 -0.0034874 4278190080
-0.0104985 0.036206301 -0.025496099 4278190080
-0.039723098 0.116184 -0.0149076 4278190080
0.015970901 0.085986897 -0.029197801 4278190080
0.039113499 0.090498097 -0.0117677 4278190080
-0.025421601 0.0999543 -0.023928201 4278190080
-0.070354298 0.0703917 0.033048 4278190080
-0.023257401 0.100051 -0.024013801 4278190080
-0.080870502 0.11922 -0.0043481998 4278190080
-0.0188243 0.086887397 -0.0382929 4278190080
-0.0218256 0.086832002 -0.037657902 4278190080
-0.052492201 0.038486499 -0.0115467 4278190080
0.016266501 0.119939 -0.0112703 4278190080
-0.0273178 0.113609 -0.0162558 4278190080
-0.0044346 0.111901 -0.0205597 4278190080
-0.038619101 0.118326 -0.013151 4278190080
-0.058864001 0.139321 -0.0054919999 4278190080
0.013368 0.122467 -0.0099764001 4278190080
0.0427869 0.061167501 -0.0033402999 4278190080
0.0027373999 0.094313703 -0.031899702 4278190080
0.0056917001 0.093878001 -0.031428698 4278190080
0.0102735 0.092465699 -0.029931899 4278190080
-0.026364001 0.035969201 -0.029405 4278190080
-0.0139288 0.088370502 -0.038028698 4278190080
-0.0736982 0.16784599 -0.023295499 4278190080
-0.045430399 0.130382 0.0060835001 4278190080
-0.073797099 0.148055 0.041299101 4278190080
-0.0485029 0.045212101 0.042426601 4278190080
-0.0099109998 0.115578 -0.016444501 4278190080
-0.0540681 0.13533901 -0.0031000001 4278190080
0.0072471001 0.123914 -0.009505 4278190080
0.0101685 0.124401 -0.0080650002 4278190080
-0.042206001 0.166657 -0.0103803 4278190080
-0.0520867 0.151648 -0.0035530999 4278190080
-0.050077301 0.15315001 -0.0048622 4278190080
-0.0042520999 0.0941246 -0.0337645 4278190080
-0.0088085998 0.088270403 -0.036862601 4278190080
0.0303577 0.105377 -0.0136057 4278190080
0.023141099 0.084468499 -0.025526101 4278190080
0.031034 0.096481398 -0.0161287 4278190080
-0.0185092 0.12713701 0.0035417001 4278190080
-0.016112501 0.12766699 0.0029041001 4278190080
-0.0113995 0.12860499 0.0017907 4278190080
-0.0078958003 0.129197 0.0010529 4278190080
0.0112062 0.129253 0.00076089997 4278190080
0.010042 0.097028799 -0.024738399 4278190080
0.015747299 0.094754502 -0.0243195 4278190080
-0.0042584999 0.096138403 -0.031825501 4278190080
-0.0593221 0.061594699 0.0254084 4278190080
-0.024485501 0.0461464 0.051609602 4278190080
-0.063100398 0.038056001 0.0429096 4278190080
-0.0608849 0.038103599 0.0449409 4278190080
-0.031088 0.0335574 -0.027391899 4278190080
-0.025008 0.033485901 -0.026133699 4278190080
-0.061456598 0.0372076 0.0201515 4278190080
-0.0370447 0.037982602 0.045212999 4278190080
-0.0326689 0.038226798 0.050749801 4278190080
-0.030156299 0.038228501 0.0524978 4278190080
-0.079791799 0.11331 -0.0025212001 4278190080
-0.072340198 0.038068902 0.0069733001 4278190080
-0.065780498 0.040309999 0.035674401 4278190080
-0.028322199 0.074924499 0.042497002 4278190080
-0.0351956 0.039495401 0.0475468 4278190080
-0.028844099 0.0958675 -0.024209101 4278190080
-0.071460299 0.039072402 0.0032530001 4278190080
-0.065101497 0.041032799 0.029562499 4278190080
-0.064256497 0.041889701 0.038407199 4278190080
-0.061743699 0.042111699 0.042850301 4278190080
-0.0575439 0.042123199 0.0457366 4278190080
-0.027982101 0.082196102 0.047597099 4278190080
-0.080785297 0.081755601 0.032375101 4278190080
-0.0380583 0.040692199 0.043346498 4278190080
-0.033339702 0.041005701 0.0499212 4278190080
-0.0290961 0.041000798 0.052754901 4278190080
-0.090773799 0.125596 0.043773901 4278190080
-0.070630498 0.040150799 0.0012266 4278190080
-0.069027998 0.040906399 0.0092372997 4278190080
-0.066863403 0.040936999 0.011312 4278190080
-0.08997 0.132328 0.039930899 4278190080
-0.036676399 0.042145502 0.044717599 4278190080
-0.0700913 0.041964401 0.0061364998 4278190080
0.0038457001 0.034122702 -0.020970101 4278190080
0.0090028001 0.0343116 -0.0200681 4278190080
-0.086566798 0.118992 0.048301499 4278190080
-0.043201599 0.171084 -0.0020206999 4278190080
-0.021138201 0.098547801 0.044502001 4278190080
-0.085717902 0.124363 0.048699301 4278190080
-0.054237999 0.13299 -0.0045901001 4278190080
-0.0448731 0.12850501 0.00026299999 4278190080
0.0111342 0.034487002 -0.019827999 4278190080
-0.0388924 0.0336117 -0.0270987 4278190080
-0.068962999 0.087430097 0.042980898 4278190080
-0.030325999 0.045000002 0.049631398 4278190080
-0.062899798 0.1209 -0.0088421004 4278190080
-0.083930999 0.103265 0.0277985 4278190080
-0.076030001 0.094136603 0.0385416 4278190080
-0.0136098 0.099765703 0.045437299 4278190080
0.0135609 0.0343729 -0.0176058 4278190080
0.0084579997 0.12908299 -0.0010801 4278190080
0.0065437998 0.034086298 -0.016728399 4278190080
0.0244608 0.0941673 -0.021671001 4278190080
-0.044531099 0.119183 -0.0140568 4278190080
0.0158369 0.105055 -0.019257599 4278190080
-0.034775101 0.123588 -0.0066811 4278190080
-0.0011433 0.0356309 -0.0159104 4278190080
0.0009407 0.035717901 -0.0155776 4278190080
0.0067960001 0.0352467 -0.0139815 4278190080
-0.050278898 0.129408 -0.0026746001 4278190080
-0.0131413 0.127389 -0.00090019999 4278190080
-0.0218319 0.036336701 -0.018781099 4278190080
-0.0197467 0.036426499 -0.0184459 4278190080
-0.0176627 0.036510602 -0.0181139 4278190080
-0.0156218 0.036518302 -0.017713601 4278190080
-0.0135396 0.036603302 -0.017381599 4278190080
-0.0104535 0.0366522 -0.016814699 4278190080
-0.0042889998 0.036746301 -0.015685299 4278190080
0.0038745 0.036767699 -0.0140867 4278190080
0.016364099 0.034802701 -0.0079177003 4278190080
0.0173609 0.089725196 -0.027029799 4278190080
0.0297429 0.112241 -0.0089707002 4278190080
0.0343206 0.094596997 -0.0141158 4278190080
0.0108274 0.036270801 -0.0225637 4278190080
-0.059580799 0.038095299 -0.0091714999 4278190080
-0.0135288 0.0458914 0.049358599 4278190080
0.0064770002 0.045961101 0.048401199 4278190080
-0.048323099 0.12806199 -0.0032713001 4278190080
-0.038290098 0.126893 -0.0021637001 4278190080
-0.0179551 0.092116401 -0.035808399 4278190080
-0.026848501 0.124528 0.00046909999 4278190080
-0.0165061 0.126041 -0.0013968 4278190080
-0.0070592002 0.127865 -0.0035848001 4278190080
0.016409799 0.12606201 -0.001877 4278190080
0.0337894 0.103744 -0.0118635 4278190080
-0.050257701 0.127427 -0.0045894999 4278190080
0.0556724 0.069872797 0.0039885002 4278190080
-0.0219613 0.124807 -0.0019570999 4278190080
0.0109104 0.126748 -0.0046064998 4278190080
-0.054928999 0.037865501 -0.0109689 4278190080
0.0121697 0.095056199 -0.026638599 4278190080
-0.0372926 0.039467402 -0.0291193 4278190080
-0.022858201 0.119091 -0.0120569 4278190080
0.0179609 0.1201 -0.0094283996 4278190080
-0.052360699 0.12647 -0.0055764001 4278190080
-0.0194201 0.1246 -0.0038232 4278190080
-0.0160718 0.124871 -0.0042043002 4278190080
-0.0034028001 0.12679 -0.0065135998 4278190080
0.0060851998 0.12669501 -0.0065124999 4278190080
0.0073956 0.034743499 -0.0216037 4278190080
0.0133536 0.0359529 -0.021072101 4278190080
-0.0055823 0.036198799 -0.024955999 4278190080
-0.023595201 0.036529999 -0.028824899 4278190080
-0.0085866004 0.0376839 -0.0256139 4278190080
-0.067513101 0.145595 0.041804802 4278190080
0.0272121 0.088765003 -0.022231899 4278190080
0.0224551 0.0368363 -0.0021998 4278190080
0.0090872003 0.035826702 -0.0084255999 4278190080
-0.034906 0.036733799 -0.016143899 4278190080
-0.081861399 0.114723 -0.0022038 4278190080
-0.057517201 0.037335001 -0.0101901 4278190080
-0.083008103 0.135296 -0.0015238 4278190080
-0.061480001 0.0371866 -0.0085580004 4278190080
-0.065493301 0.037019201 -0.0073385001 4278190080
-0.068518199 0.036821399 -0.0053939 4278190080
-0.070683897 0.036337201 -0.0011599 4278190080
0.031414501 0.038414601 -0.0011367 4278190080
0.023445999 0.038503699 -0.0039646002 4278190080
-0.0840398 0.132376 -0.0018283 4278190080
-0.009602 0.0406207 -0.0262166 4278190080
-0.0276134 0.0408758 -0.0294796 4278190080
0.037406199 0.039723601 -0.0001392 4278190080
0.033418801 0.039938699 -0.002264 4278190080
0.0304249 0.039989699 -0.0029285001 4278190080
0.025433101 0.0400654 -0.0046299999 4278190080
-0.0171472 0.166778 -0.019613599 4278190080
0.019119401 0.0349494 -0.0037461999 4278190080
-0.0368535 0.036297299 -0.0142764 4278190080
-0.052501202 0.046572998 0.0420391 4278190080
-0.030823501 0.12443 -0.00028070001 4278190080
0.0182047 0.100313 -0.022459701 4278190080
-0.057544298 0.040141799 -0.0090990998 4278190080
0.0080081001 0.0345328 -0.0037044 4278190080
-0.039199799 0.035124701 -0.0118182 4278190080
-0.034381799 0.038353998 -0.0138166 4278190080
-0.0224848 0.047463499 0.051092599 4278190080
-0.0221845 0.172691 -0.020891801 4278190080
-0.053561199 0.041691899 -0.0097757997 4278190080
0.041452602 0.042567302 -0.00051390001 4278190080
-0.0185134 0.0473863 0.05026 4278190080
0.0074768998 0.047411099 0.049396198 4278190080
-0.067514502 0.148386 0.0398761 4278190080
0.037501302 0.045460999 0.0306904 4278190080
-0.0475053 0.16079 0.0073608998 4278190080
0.032321699 0.116577 0.023063799 4278190080
-0.054472499 0.047875401 0.040218301 4278190080
0.0091885999 0.034234501 -0.0013264 4278190080
0.019656001 0.034760401 0.00028169999 4278190080
0.0242713 0.035753999 0.0002945 4278190080
-0.067394398 0.162815 -0.015253 4278190080
-0.022491399 0.04868 0.049188498 4278190080
-0.0094860997 0.048834801 0.049635701 4278190080
-0.0064963 0.048832901 0.050181001 4278190080
-0.0654644 0.14829201 0.038816798 4278190080
-0.0358232 0.127618 0.0052268002 4278190080
0.0055578002 0.034446001 -0.00038489999 4278190080
0.0104604 0.0340987 0.00091579999 4278190080
0.0383914 0.039094899 0.0021901999 4278190080
-0.040497299 0.049216501 0.039596502 4278190080
-0.0067960001 0.100851 0.0456503 4278190080
-0.0432963 0.12884299 0.0142751 4278190080
-0.022497401 0.049885198 0.046496 4278190080
0.011996 0.034454498 0.0027663 4278190080
0.0141672 0.0347073 0.0029682999 4278190080
0.016474999 0.035203598 0.0029780001 4278190080
0.039817199 0.039073698 0.0042055999 4278190080
-0.041866299 0.034002099 -0.0058027999 4278190080
-0.0024943 0.050509401 0.052682701 4278190080
-0.00049800001 0.050518401 0.052937701 4278190080
-0.0064900001 0.122405 0.035477601 4278190080
-0.089634798 0.140659 0.0301806 4278190080
0.0095824003 0.035034198 0.0036092999 4278190080
0.0207355 0.0349558 0.0059225 4278190080
-0.090824299 0.114994 0.023546999 4278190080
-0.058129501 0.064306498 0.0321224 4278190080
-0.060128499 0.033479899 -0.0071740001 4278190080
-0.036158599 0.038281899 -0.0067057 4278190080
