# .PCD v0.7 - Point Cloud Data file format
VERSION 0.7
FIELDS x y z
SIZE 4 4 4
TYPE F F F
COUNT 1 1 1
WIDTH 1384
HEIGHT 1
VIEWPOINT 0 0 0 1 0 0 0
POINTS 1384
DATA ascii
0.073184624 0.169754 0.27852085
0.042642906 0.150498 -0.24432397
0.0046862513 0.068866625 -0.042076528
0.21320641 0.166086 0.12424994
0.097207457 0.150498 -0.22000498
0.24867947 -0.017313652 0.033937577
-0.28149754 0.058966443 0.0024232159
0.047944486 -0.077611715 -0.059295673
0.086416133 0.0019198901 -0.026263371
0.067638874 -0.085227512 -0.080765836
0.11625046 0.150498 -0.16643214
-0.003626809 -0.0032620174 0.16136973
0.038807731 0.150498 -0.15161112
-0.29491156 0.019892348 0.0093838144
0.036770359 0.0019198901 0.33749592
0.015043532 -0.0210032 -0.31246099
-0.13485247 0.0013115448 -0.016221296
0.16640179 0.15132131 0.32767037
0.084084794 0.050905593 -0.059463024
0.067645095 0.0019198901 0.10954593
-0.0073941303 -0.010166865 -0.15883769
0.2057261 0.169754 0.18252069
0.11243609 0.059312504 0.044850659
0.068070047 0.0019198901 -0.056484986
0.13331078 -0.021003198 0.0094816694
0.15522157 0.0019198901 0.2894685
0.025766971 -0.0210032 0.20607519
0.22942309 0.1520635 0.22307414
0.073535159 0.090017609 -0.2326376
0.073421098 -0.021421816 -0.063294947
0.043020442 0.169754 -0.23292069
0.1926863 -0.0210032 0.26187456
0.20502478 0.16608599 -0.20459278
0.08528927 0.12120804 -0.086932331
0.067063265 0.150498 -0.23988169
0.045351684 0.087265149 -0.021495726
0.20884004 -0.02726266 0.00092456792
0.17573985 0.166086 0.14482062
0.018225364 0.0019198901 -0.20880163
0.20351869 0.150498 -0.31818029
0.22698346 0.150498 0.15981609
-0.26300198 0.028785614 0.017788362
0.098221295 0.150498 0.1378796
-0.28077546 0.018016526 -0.022478547
0.030504683 0.166086 0.12133887
0.19021584 0.0019198901 0.093997732
0.080976889 0.166086 0.20436272
0.13591658 0.00010424014 -0.052375551
-0.16093113 0.0031427103 -0.013787127
0.069928721 -0.1582014 -0.078576535
0.047614072 0.083752647 0.012931607
-0.13392945 0.057444267 0.022909116
-0.10682566 0.064778611 0.019684151
0.021478305 -0.0210032 0.037375733
-0.0060924557 -0.0072147269 -0.048200488
-0.21443342 0.068321764 -0.0051223147
0.026615616 -0.14268138 -0.073983133
-0.21935344 0.058333613 -0.026603099
0.13048056 -0.0210032 0.23200932
0.072492681 0.0019198901 0.27687535
0.15731728 0.166086 0.15248148
0.20859239 0.166086 0.20478797
0.13382001 -0.0210032 -0.12669726
0.024478622 0.15320069 -0.052208625
0.1115095 0.166086 -0.24825013
0.20011827 0.150498 -0.10049585
0.18358915 0.150498 0.059530981
0.17587888 0.166086 0.27917236
0.072798245 0.0019198901 -0.15138352
0.15833141 -0.0210032 -0.16006587
0.10480469 0.0019198901 0.21457088
0.041299202 0.150498 0.23422717
-0.055505082 0.023014631 0.033769377
0.04015705 0.15049802 0.14358443
0.1478985 -0.02155575 -0.019722454
0.056939747 0.166086 -0.19589673
0.095484175 0.090059258 -0.021578357
0.069973044 -0.0210032 -0.24077936
0.19018228 0.150498 0.30444324
0.13962248 0.0019198899 -0.18880802
0.071596876 0.16608602 0.28353533
0.14304163 0.0019198899 0.038378827
0.1960721 0.083092272 0.036517367
0.099288762 0.150498 0.11959521
0.045298476 0.150498 0.1557624
0.14652413 -0.0210032 -0.14878127
0.13502425 0.0019198901 -0.068699062
0.20732565 0.16785134 -0.24533629
0.060897432 -0.0210032 -0.11977833
0.1490459 0.0019198901 -0.073453926
0.12677401 0.16608599 0.18652815
0.15977375 0.0019198901 0.22313458
0.086100146 0.150498 0.079333313
0.2076181 0.066244334 -0.064046875
0.1889621 0.0019198901 0.24275026
0.16429865 -0.0210032 0.16993883
0.053425398 0.169754 0.23195846
0.19804406 0.0019198901 0.29999393
0.10769255 0.169754 0.26949942
0.12240961 0.150498 0.22271264
0.017248426 -0.0049264273 0.018983768
0.046256915 0.0019198901 -0.1782881
0.011179955 -0.021003202 0.35419372
0.20720828 0.16608602 0.30539769
0.14536309 0.080774613 0.032724075
-0.01631172 0.013403149 -0.046884656
0.12935305 0.166086 -0.26216438
-0.0040356433 0.0019198901 -0.30597031
0.089404717 0.0019198902 -0.15642856
0.22014478 0.150498 0.15497084
0.10797463 0.169754 -0.26151055
0.14631645 0.150498 0.27834666
0.11015897 0.166086 -0.32030135
0.17485815 -0.0210032 0.12177204
0.11906794 -0.0210032 -0.24309203
0.19319853 0.169754 -0.23489176
0.10648724 0.169754 0.24695863
0.034676284 0.166086 0.34196591
0.13308977 -0.0210032 0.15839286
0.13712832 -0.0210032 0.30361801
0.058844142 -0.0210032 0.14764194
-0.27401361 0.060275093 0.00086349179
0.21805997 0.166086 -0.14927883
0.078763813 0.0019198901 0.13171908
-0.22738759 0.079188474 -0.0046858732
0.20896271 0.166086 -0.16099007
0.14956014 -0.0210032 -0.25947824
0.17703676 0.166086 -0.27119008
-0.051580355 0.020690247 -0.046794329
0.10724067 -0.0210032 -0.17342389
0.15129474 0.08588127 -0.22160891
0.11085276 -0.0210032 -0.062208965
0.030771727 0.0019198901 -0.046989247
0.21858197 0.166086 -0.088934369
0.071412772 -0.0210032 0.27840757
-0.080697633 0.006215746 0.020343762
-0.13614219 0.04005954 0.029134097
0.21219607 0.150498 -0.11171238
0.19137976 -0.0040070075 -0.31431875
0.22125413 0.150498 0.13989547
0.097206697 0.0019198902 -0.028613549
0.19087806 -0.021003202 0.090476826
-0.27331752 0.0441636 0.047783736
0.06268017 0.0032550124 0.033602007
0.047871515 0.16886173 0.17345321
0.17201127 -0.0210032 0.091323704
0.28940201 0.0019889711 0.016253838
0.19467279 -0.0210032 0.14689459
0.11990987 -0.0210032 0.050379656
0.18098399 -0.0210032 0.26774731
0.099855334 0.0019198901 0.15562296
0.20844041 0.16608602 -0.21843731
0.13311504 0.150498 0.027975122
0.022769034 -0.011864742 0.0012758634
0.17189747 0.166086 -0.16684274
0.10899029 0.166086 0.1208113
0.0021828045 -0.0210032 -0.018821135
0.078585267 0.150498 -0.34589565
0.16128665 0.166086 -0.18151297
-0.0026045954 -0.0210032 -0.23715709
-0.0068567107 -0.0040333662 -0.11315916
0.13206144 0.150498 0.11523171
0.15994006 0.0019198901 0.093089841
0.068630226 0.0019198901 0.24511331
-0.14877054 0.03938869 0.028180545
0.085424595 0.150498 -0.10397876
0.026794657 0.0019198901 0.15955384
0.18582377 -0.0210032 0.24498561
0.13384508 0.150498 -0.25282302
-0.27148855 0.036944501 0.018377626
0.065148108 0.11732997 0.090082049
0.088847384 0.166086 -0.13793582
0.084247217 0.16608602 0.24964777
0.057363819 -0.0210032 -0.15013616
-0.15995844 0.0505943 -0.037984751
0.14787215 -0.0210032 0.13779932
0.28356507 0.010295698 -0.072161987
0.075898595 -0.10957975 0.023916539
0.12980115 0.166086 0.23012573
0.076088086 0.062726483 -0.028588843
0.20030272 0.15049799 0.0012740633
0.092956722 0.150498 -0.34705591
-0.21702036 0.063652664 -0.018531851
0.016869299 -0.0019035004 -0.34439853
0.066715531 -0.021003198 0.012705503
0.076966822 0.166086 0.10858377
-0.20408674 0.0441636 0.012342727
0.20986308 0.166086 0.066770539
0.0531151 0.16608602 0.18908906
0.00076279906 -0.013201637 -0.34055454
0.036255606 0.0019198901 0.04428057
0.03678276 -0.0210032 0.10562266
0.059945971 0.166086 -0.34144783
0.070589647 -0.07669054 0.091648936
0.19912331 -0.0033919993 0.25012508
0.13626571 0.150498 -0.3198058
0.12956029 -0.0210032 0.29451165
0.014031065 0.0019198901 0.03337869
0.10708528 -0.0210032 0.33144566
0.019368503 -0.0210032 0.093970433
0.16872171 0.150498 0.21964216
0.14941546 0.13084625 -0.22403897
0.084584162 -0.0210032 0.18457727
0.06666664 0.0019198901 0.12528047
0.090716332 -0.0210032 0.2806963
0.15646788 0.089049153 -0.037052713
0.070846833 0.150498 0.040611222
0.037426036 0.0019198901 0.068751246
0.22485319 0.061515614 0.053891324
0.20010313 0.166086 -0.2136935
0.095763668 0.150498 0.30404332
-0.091741532 0.075394794 0.0028282204
0.012607716 0.0019198901 0.10091518
0.050816122 -0.0210032 -0.25152305
0.17995581 0.0019198901 0.13078819
0.088724568 -0.021003202 -0.22748804
0.19342187 -0.0210032 0.14722329
0.18688466 0.166086 -0.095873311
-0.15209499 0.059574462 0.019401662
0.10508396 -0.0046308143 0.34883556
0.060813148 0.16608599 0.31493393
-0.26620221 0.10218218 -0.0037624349
0.020952769 0.0019198901 -0.037650876
0.22536923 0.1517956 -0.12151908
0.11749263 -0.099135846 0.086864889
-0.26916766 0.029574703 0.017569311
0.10859193 0.0019198901 -0.064918675
0.008640998 0.0019198901 -0.12230066
0.036688354 -0.0210032 -0.1236873
0.072352901 0.169754 -0.27182266
0.0067084301 0.0019198901 -0.060331978
0.1989689 -0.0033606929 0.23700021
0.033919122 -0.023909736 -0.05854468
0.28940201 -0.016372342 -0.053656202
0.15121013 0.042583372 -0.0093040653
0.10175022 0.166086 -0.23000221
0.18065728 0.166086 0.10991535
0.10602236 -0.16266726 0.090087354
0.17795217 0.150498 -0.2004036
0.18826202 -0.0210032 0.047510128
0.2132462 0.16608602 0.090409607
0.02581685 0.15241906 0.06153525
0.0053922469 0.0019198901 -0.1952216
-0.20992544 0.0441636 0.024715519
0.0026383325 -0.0063418993 0.013526874
-0.27924386 0.011529896 -0.0066915583
0.036593035 0.0019198901 -0.17726631
-0.035797402 -0.0039889803 0.010991684
-0.093545005 0.027328223 -0.045525908
0.097499661 0.166086 0.0076326653
0.022242123 0.16167995 -0.24230179
0.18006253 0.150498 0.19262864
0.092479452 -0.0210032 0.27811727
-0.0076350425 -0.0210032 -0.19318929
0.24180952 0.025166813 -0.072909594
0.162386 0.150498 0.15553279
0.032096718 0.150498 -0.18100908
-0.22355565 0.031173101 -0.035305608
0.1379686 -0.0210032 -0.3197827
0.012089666 -0.0210032 -0.16369946
0.080643475 -0.15289097 -0.080021232
0.098454095 0.16608602 -0.039291918
0.28237912 0.0054358803 -0.070043981
0.081513345 0.150498 0.093020149
0.031432513 -0.0210032 0.061005931
0.11658019 0.0019198901 0.29820755
0.069050759 0.032161344 0.045936976
0.16508991 0.150498 0.11350201
0.14004408 0.150498 -0.084155552
0.066844866 0.150498 -0.069711231
0.032885402 -0.0210032 -0.26300582
0.12499341 0.0019198901 0.2912674
0.13172755 0.0013653333 0.039271127
0.019831553 0.071585499 -0.041472092
0.13505889 -0.018691339 -0.025657929
-0.006212797 -0.016134311 -0.058429014
0.16966739 0.0022256374 0.043843038
0.11596629 -0.010069756 0.3455638
0.17568752 0.169754 0.2370232
0.040508442 0.166086 0.34509677
0.036738265 0.0019198901 -0.011934198
0.076004542 0.0019198901 0.08760678
0.08374203 0.150498 -0.14296263
-0.032362759 0.069234505 -0.037522629
0.0060733259 0.044151582 0.040328771
0.042922057 0.15049802 -0.33661774
-0.27370211 0.057911593 0.006210302
0.092547551 0.150498 -0.27977759
-0.011770518 0.027638102 0.0386733
0.021990921 0.0019198901 0.2535671
0.13260543 0.166086 -0.14375412
0.12363687 0.0019198901 -0.010779075
0.070152909 -0.0210032 -0.034861751
-0.22312708 0.016316259 0.014156299
0.22490408 0.15075912 -0.16105074
0.079958424 -0.0210032 -0.30672503
-0.0041494137 -0.016803483 -0.33916068
0.025589535 0.0019198901 0.13018817
0.1809631 0.0019198901 0.30059826
0.25398821 0.10500189 -0.0082429973
0.11743984 0.16608599 -0.084712222
0.029279027 0.150498 -0.24265644
0.016349865 -0.11943948 -0.059327044
0.11050078 -0.021003202 0.13685989
0.057536859 -0.0210032 -0.0099118948
0.028522588 0.15236382 0.29151186
0.0564043 0.052344374 0.024634674
0.124979 0.150498 -0.034995366
0.16262002 0.150498 0.22938892
0.097207688 -0.076775074 0.07003127
0.20508173 0.0072137369 0.050296381
0.14341252 0.0019198901 0.22420073
0.14244908 -0.0210032 0.28644609
0.15856168 0.10878569 0.24304114
0.16969582 0.150498 -0.074179113
0.25069875 0.041661382 0.060839422
0.1858127 0.0019198901 0.021129915
0.096974164 0.150498 0.15456539
0.1269448 0.169754 -0.28620183
0.22774521 0.16488002 0.080434427
0.13288678 -0.021003202 -0.039120965
0.13817085 -0.0210032 -0.27282098
0.20987235 0.166086 0.01685667
0.18654501 0.0019198901 -0.19395755
0.16900334 0.150498 0.038362499
0.046040095 0.150498 -0.15370706
0.090099648 0.150498 0.15787381
0.10439508 0.166086 0.13074088
0.10986798 -0.1031387 -0.076800264
0.22822289 0.053374846 0.057442822
0.28590995 0.018732673 -0.062734783
0.070367657 -0.081976496 0.073377013
0.047976896 0.0019198901 -0.16614066
0.061937056 0.094398223 0.066659875
0.0051403805 0.0019198901 -0.16428372
-0.27284861 0.058604646 0.0051454096
0.050053954 0.0019198901 -0.19385806
0.0744427 -0.021003198 0.16088256
0.14459723 0.0019198901 -8.2062557e-05
0.045258775 0.150498 -0.26464221
0.1902931 0.166086 0.013053084
0.027927456 0.0019198901 0.13354163
0.0037279949 0.077598266 -0.031472307
0.052051231 0.150498 -0.30693597
0.13826883 0.150498 0.023415994
0.089967415 -0.0210032 -0.19321795
0.17851537 -0.0210032 -0.26918888
0.1141369 0.169754 0.14018795
0.15802158 0.0019198901 -0.1260716
0.062009871 -0.0210032 -0.32420838
0.19656706 0.0019198901 0.12719254
0.025330886 0.1623895 0.020230487
0.043547258 0.150498 -0.075806119
0.15327837 0.0019198901 -0.11860474
0.11830235 -0.021003198 0.15777825
0.036413927 0.166086 -0.21526109
0.18961272 0.16608599 -0.19689909
0.025603456 0.150498 -0.22869353
0.092406943 -0.047160283 0.070187084
0.19038221 -0.0210032 0.20896845
0.042688906 -0.0210032 -0.26742995
0.1527063 -0.0210032 -0.20572643
0.035286199 -0.0210032 0.33221203
0.17369175 0.070721604 0.04443825
-0.27488852 0.0420711 -0.080302499
0.1768605 0.150498 0.022780765
0.09497872 -0.0210032 0.11034557
0.1036767 -0.11800234 -0.08391808
0.21904793 0.166086 0.020427588
0.28242373 0.035012107 -0.051585145
0.22745425 0.099140048 0.014223856
-0.18350187 0.020834139 -0.035173804
0.22187516 0.166086 0.16154379
0.048933886 0.169754 -0.24082924
0.16554733 -0.0210032 -0.023758022
0.27931601 0.02992278 -0.029523779
0.2027877 0.150498 -0.15153877
-0.23436582 0.073879436 -0.0048991228
0.18425007 0.150498 -0.0068857637
0.13903463 -0.021003198 0.30597255
0.1169178 -0.0210032 0.32242322
0.08840996 -0.059566535 -0.063779771
0.15090984 0.169754 0.13617623
0.082603537 0.12637274 0.24105528
0.057695553 -0.16129735 0.086052023
0.11963773 0.166086 0.25580248
0.22709054 0.150498 0.14514536
0.19837959 -0.016174346 0.18690178
0.10897458 0.166086 0.31057933
0.23140788 0.10135605 0.0081449104
0.14460126 0.15071073 -0.35540569
0.20001723 0.166086 0.035814758
-0.25440425 0.0441636 0.026450265
0.27955046 0.018380433 -0.00014012746
0.19187623 -0.0210032 -0.26892284
0.056356788 0.150498 -0.022338733
0.13902493 -0.0210032 0.11363817
0.16856247 0.0019198901 -0.20114584
0.12943226 0.150498 -0.08673542
0.085807115 -0.14465067 0.092142038
0.11323604 -0.0210032 -0.22434504
0.1388084 -0.0210032 0.12435616
0.19506383 -0.023298584 -0.027361145
-0.024519499 0.061744999 0.030889733
0.1703587 0.15920512 0.32607692
0.13834397 0.150498 0.32908088
-0.28529897 0.097866349 -0.0039358032
0.09849149 0.150498 0.31855184
-0.064292677 0.073237091 0.014375819
0.18082751 0.16608599 -0.25915131
0.023550164 0.0019198901 -0.31883273
0.081177846 0.166086 0.31901956
0.0077289091 0.0019198901 0.018834911
0.20185819 0.097390041 0.012977557
0.13961893 0.166086 -0.089265376
0.045657378 0.166086 0.24687776
0.19615963 0.166086 -0.27735221
0.003015354 0.0019198901 0.050072074
0.28615421 0.010232526 -0.07236506
0.24146512 0.042459257 -0.073612578
0.18993828 0.0017007621 -0.31512991
0.19781709 -0.0045971684 0.13908151
0.22109629 0.150498 0.20085871
0.097100578 0.150498 -0.11700517
0.16174954 -0.0210032 -0.28913856
0.049993321 0.150498 0.17180261
0.048129972 -0.0210032 0.14441276
0.077092476 -0.11309907 -0.010102784
0.14677733 0.166086 -0.24207142
0.18204935 0.150498 0.080631852
0.050405905 0.0056920056 0.034206431
-0.29374164 0.019566886 0.0091168489
0.14224474 0.0019198901 0.0049955733
0.036649223 0.169754 -0.25577939
0.18439221 0.150498 -0.1784116
0.086292267 0.16675135 0.13611795
0.086629704 0.0019198901 -0.12368099
0.14891672 -0.0210032 -0.11325149
0.098195434 0.150498 0.15296844
0.013695194 0.0019198901 0.016835384
0.060868964 -0.015935834 -0.0078695621
0.060336094 -0.0210032 -0.27683741
0.022778815 0.16574249 -0.19668509
0.18814278 0.150498 -0.21431005
0.081169248 -0.0210032 -0.18440606
0.15767482 -0.020416012 0.012688144
0.15235406 -0.0210032 0.33131039
0.28940201 0.014674063 -0.024529412
0.14902696 0.150498 0.14491393
0.26446688 0.03607592 0.062575109
0.078805506 0.150498 0.32591349
0.1553546 0.010807859 0.047382351
0.068939127 0.0019198901 -0.012669623
0.073977277 -0.0210032 -0.14616311
0.24284399 0.00014449842 -0.063431181
0.13053864 -0.021334272 -0.010524886
-0.21098265 0.038009912 -0.0063398974
0.072932817 -0.078957058 -0.061297812
-0.12580703 0.027840732 0.029291362
0.14746921 0.0019198901 -0.24846801
0.14748329 0.0019198901 0.089289039
0.21446261 0.012271308 -0.066862099
-0.23506959 0.0441636 0.072637886
0.17312324 0.166086 -0.073529281
0.17390639 0.0019198901 -0.25825477
0.01942415 0.0019198901 0.24859008
0.20550683 0.16821158 -0.25429907
0.10647966 -0.068248764 0.081818223
0.069815129 -0.10133163 -0.060175285
0.012766376 0.058595955 0.036322884
0.20510626 0.166086 0.19303651
0.018593634 -0.0210032 -0.31245178
0.11053369 -0.12358245 -0.06513983
0.22150254 0.166086 -0.28447926
0.17947036 0.150498 -0.1780801
0.049919419 0.166086 0.010946855
0.17564516 0.169754 -0.24750671
0.078675508 0.089580372 -0.053160008
0.11672967 0.16608602 0.26229018
0.26290828 0.088877462 -0.051598851
0.14246196 0.166086 -0.19596353
0.17523393 -5.2039482e-05 0.042669259
0.27958471 0.04789051 0.021478243
0.044668395 -0.0210032 -0.14583209
-0.21460581 0.0420711 -0.020674504
0.13423386 -0.10454232 0.085069418
0.052148849 0.16608602 0.0059872046
0.14768484 0.16608602 0.007532075
-0.0038603335 -0.01372019 0.14152104
0.15437715 0.150498 -0.070440568
0.13353099 0.0019198901 0.14163345
0.18210961 0.150498 0.30063865
0.13684441 0.169754 -0.28251037
0.16352357 0.150498 0.15657665
0.060907852 0.0019198901 0.042320058
0.1756088 0.0019198901 0.15907027
0.022571037 0.15919563 -0.21434544
-0.28309742 0.1011979 -0.0038020008
0.08352007 -0.0210032 -0.023852035
0.10043268 0.0019198901 0.024439283
-0.061065756 0.07598342 -0.022098038
0.077979073 0.150498 0.077785455
0.024831908 0.15167499 -0.022180736
0.04397174 0.166086 0.20594093
0.053106256 -0.0210032 0.0059289061
-0.28080752 0.015174047 -0.018524481
0.092172541 0.0019198901 -0.22299194
0.18684869 -0.018295998 0.024042111
0.10874014 0.169754 0.20089802
0.21565425 0.166086 -0.26908094
0.021172304 -0.12940922 -0.073787421
0.1940193 -0.0080834478 -0.18372145
0.18509737 0.150498 -0.13805756
0.16875529 0.03402051 0.054407839
0.1256399 -0.021003198 0.29975098
0.14591196 0.150498 0.27728519
-0.19840999 0.01833031 0.018249981
0.11367231 0.0019198901 0.33187619
0.069534346 0.0019198901 0.1505769
0.12609057 0.150498 -0.33323982
0.087310798 0.166086 -0.24038909
0.052207116 0.0019198901 0.018465921
0.08650586 0.15856814 0.34727442
0.059118196 0.150498 -0.26411387
0.084005617 -0.0210032 0.095846675
0.13176841 0.150498 -0.1970354
-0.021037452 0.07698217 -0.028243067
0.15843245 0.169754 0.18701515
0.16566247 0.12990583 -0.095053516
0.20099948 0.150498 -0.15294705
0.10750108 -0.0210032 -0.10998834
0.044095766 0.075322151 0.026222661
0.070431843 0.150498 0.10547526
0.056890175 0.0077292277 0.036438197
0.06000967 -0.067406356 0.091555685
0.096644677 -0.16570236 0.074494794
0.16131866 0.053871676 -0.065072581
0.20944178 -0.022499885 -0.032362632
0.080636926 0.150498 0.025628429
0.0068398118 0.0019198901 0.31941706
0.14045329 -0.0210032 -0.092183664
0.16471268 0.169754 0.21677306
0.18262213 0.16608602 0.013491328
0.18347202 0.150498 -0.04005003
0.019207831 -0.0210032 -0.22806506
0.064977139 0.0019198899 0.17503943
0.17468563 0.16608602 0.12538879
0.088162072 0.0019198901 -0.29144999
0.062180571 -0.041775703 -0.061280988
0.0054004276 -0.0210032 0.3398146
0.094044827 -0.0210032 0.026618797
0.080013543 0.0019198901 -0.042174198
0.098027132 -0.15575388 -0.07567586
0.23311934 0.085347414 -0.052196581
0.096944995 0.150498 -0.044332687
0.15715073 0.169754 -0.30975041
0.18379688 0.00060989882 0.31530613
0.28940201 0.065927371 0.052022301
0.11659763 0.166086 0.24634355
0.12306107 0.0019198901 0.19130409
0.12016115 -0.0210032 0.25276515
0.21287508 0.16608602 -0.18370618
0.19794613 0.16898391 0.26689833
0.039009877 0.0019198901 0.2973834
0.036736697 0.010944515 0.036827441
0.19771901 -0.0210032 0.24292411
-0.0004696548 0.0041464432 -0.041415125
-0.0072973222 0.073321171 0.021924742
0.061039567 -0.0210032 0.10688466
0.093516611 0.150498 0.22503304
0.16785476 0.169754 -0.27063608
0.16298756 0.150498 0.14309844
0.068592802 0.166086 0.21097514
-0.0070678061 -0.0027213418 -0.13110138
0.16235434 0.166086 0.11238007
0.19207427 0.150498 -0.011696685
0.13231872 0.150498 -0.083142847
0.10711911 0.0019198901 0.25240132
0.15172021 0.150498 0.20832224
0.13811198 0.150498 -0.29772761
-0.26779741 0.002010426 -0.0077227368
0.10978416 -0.0210032 0.078003712
0.27069044 -0.0087876255 0.045808271
0.18901683 0.150498 0.15448329
0.26751059 0.076210819 -0.063539587
0.061960425 0.150498 0.14097334
-0.025827996 -0.0048698527 -0.024636257
0.099920586 0.150498 -0.13519193
0.17798847 0.150498 -0.16086891
0.010585329 -0.0210032 -0.17855309
0.092141144 -0.12503302 -0.062918238
0.24150009 0.070049711 -0.065470472
0.13972884 0.0019198901 0.32220256
0.22858103 0.15788841 0.15148994
0.16448742 -0.0210032 -0.1437753
0.026262907 0.16203101 0.099448264
0.20392585 0.16608602 0.1200834
0.22149558 0.0022282931 0.049188815
0.07457421 0.166086 -0.26784113
-0.20451008 0.05064084 -0.0058325641
0.10010957 -0.0210032 -0.25932989
0.2247573 0.16231705 -0.17352533
0.17238605 0.083622694 -0.046283565
0.10937156 -0.021003198 -0.013534246
0.098119125 0.166086 0.23942234
0.19703132 -0.010791553 0.072283074
-0.001218915 0.050014637 -0.052279413
0.051937342 -0.021003202 -0.21309102
0.064500779 -0.11712489 -0.079319842
0.055981852 0.150498 -0.013126411
0.19568452 -0.0078134472 -0.042198226
0.22537778 0.16316581 -0.12079404
0.051885843 0.166086 0.25710058
0.022495283 0.0019198901 0.21056949
-0.28010055 0.013879437 0.0019100038
0.19345886 0.0012610758 -0.23135354
0.12319753 0.169754 0.17707673
0.24372795 -0.029878922 -0.016556107
-0.0017200857 0.017385017 0.036199562
0.1143093 0.150498 0.34100431
0.083779655 0.169754 -0.29403791
0.1555357 0.029905587 0.052775383
0.010145335 -0.0210032 0.13571191
0.077080742 -0.06260404 0.090393238
0.08159098 0.166086 0.1242854
-0.0049444023 -0.015224083 0.049379461
0.093120009 0.0019198901 -0.060566731
0.059900954 0.150498 -0.10714426
0.16259336 -0.0210032 -0.096841238
0.1995022 0.166086 0.053679019
0.046790522 0.166086 -0.2511735
0.082837984 0.16041711 -0.3599048
0.1482666 0.0019198901 -0.30460334
0.11317165 -0.0210032 0.12640546
0.07051266 -0.0210032 0.19957709
0.18411706 0.0019198901 0.20355451
0.068986356 -0.11196443 0.011079995
0.16631137 0.13301821 -0.098564312
0.10857525 0.150498 0.15510167
0.1643382 0.166086 0.033632077
0.1875532 0.0019198899 -0.17654777
0.057885818 -0.068347029 0.081190169
0.21120754 0.033883914 0.05789236
0.061331179 -0.13473001 0.094699115
0.014257442 0.0019198901 0.16158198
0.17264083 -0.0210032 -0.1552588
0.10678065 0.150498 -0.31642565
0.052032672 0.150498 0.062959962
0.20986146 0.169754 0.22661442
0.11497147 0.0019198899 -0.19379713
0.089250065 0.0019198901 -0.19061042
0.14944302 -0.0210032 -0.089219391
0.2064904 0.166086 0.031879723
0.039899494 0.0019198901 0.21355012
0.302239 0.041503143 0.038920514
0.053953923 0.079610467 0.021958601
0.18670328 0.150498 0.27709457
0.25661466 -0.031493802 -0.0012747907
0.067882828 0.073971339 0.031035317
0.019468043 -0.13614871 -0.05722966
-0.29439858 0.0441636 0.082992688
0.070106409 0.150498 -0.31955385
0.031116176 -0.021003202 0.23148341
0.18361811 0.013041114 0.050809793
0.094370916 -0.13869464 0.072453357
0.06584046 0.150498 0.078549743
0.11050354 0.150498 0.15561327
0.13578413 0.0019198901 -0.048601337
0.15862238 0.166086 -0.095352329
0.15008643 -0.0210032 0.32832649
0.22213103 0.15713404 0.29941189
0.269449 0.10009377 -0.03453818
0.03931538 0.0019198901 0.098215103
0.17421272 0.0019198901 -0.32084453
0.20163752 0.150498 -0.26356766
0.17406318 0.166086 0.23317342
0.19990081 0.166086 0.27539435
0.16173525 -0.0039215083 -0.051948532
0.16834712 0.169754 -0.30833885
0.099094026 -0.0210032 -0.24104068
0.14863792 -0.0210032 0.18940473
0.027190691 0.15412731 0.17830604
0.20634356 0.150498 0.17645502
0.03798968 -0.0210032 0.34211421
0.18647118 0.150498 -0.044042606
0.048655178 0.0019198901 -0.33814549
0.097924434 0.166086 -0.03819
0.16584425 0.0019198901 0.28779987
0.22993699 -0.011838945 -0.052194193
0.042508751 -0.0210032 -0.31130895
0.10119564 0.16608602 0.23810574
0.1929725 -0.0031506428 -0.27268767
0.082581125 0.0019198901 0.21482678
0.19243857 0.169754 0.22056744
0.0036646128 -0.0018039821 -0.034867927
0.08472795 0.16326919 -0.36002085
0.078889817 0.150498 -0.016681194
0.1350311 0.169754 0.19130647
0.056317948 0.166086 0.33462536
0.14767431 -0.0210032 0.026081009
0.15812498 0.0019198902 -0.3300572
-0.26883233 0.021984397 0.013793018
0.19706601 -0.021003202 0.091701247
0.085643739 -0.0049590305 0.028131569
0.1873796 -0.0210032 -0.12120306
0.12306264 0.150498 -0.1007398
0.12957853 -0.021003198 -0.15073994
0.04873205 0.166086 0.28883165
0.027570773 -0.096062705 -0.075667351
0.2564759 0.097886525 -0.037094034
0.18143776 0.150498 -0.22705719
0.10647139 0.150498 -0.27374119
0.023729738 0.16160417 -0.3493852
0.13717794 0.150498 0.3000291
0.029439989 -0.0210032 0.14156058
0.093140334 0.0019198901 0.19733927
0.063840762 0.169754 0.18730792
0.16311987 0.0019198901 -0.18880816
0.12139097 0.150498 0.30291221
0.10432896 0.150498 -0.069152385
0.11800047 0.0019198901 -0.1352583
0.076743282 0.053962927 -0.057546612
0.087705694 -0.0210032 -0.13895938
0.20334113 0.16608602 0.13616295
0.049628165 -0.0210032 0.14311711
0.024172947 0.166086 -0.15371633
0.10672595 0.169754 -0.20360164
-0.044486836 0.034167491 0.036833741
-0.24892175 0.0441636 0.05844916
0.040275596 0.10620935 -0.0068690926
0.19950026 -0.0049756397 0.2821717
0.0074780784 -0.021003198 0.32810476
0.1481654 0.169754 -0.1713528
0.277024 0.020076308 0.04840222
-0.0080356672 -0.0098098312 -0.21336576
0.091341935 -0.0210032 -0.18323854
0.1513879 -0.0210032 0.20256519
0.22697246 0.16198751 0.014743345
-0.002166033 -0.021003198 0.21528268
0.18993229 -0.0056900261 0.31146923
-0.038901519 0.02760287 0.036430214
0.071884692 0.01836442 -0.056762334
0.15604071 0.169754 -0.19994219
0.028167941 0.16027224 0.26136822
0.1922702 -0.021003198 -0.17066351
0.16571686 0.169754 -0.21833184
0.14929822 0.072104931 -0.22338168
0.043886058 -0.1088928 0.095888972
0.14974684 0.150498 -0.14017677
0.12747124 0.150498 0.29421943
0.049031276 -0.12044507 0.077194229
0.18971443 0.0019198901 -0.27830234
0.06723918 0.166086 -0.12648295
-0.14160775 0.063763246 -0.029973716
0.15904388 0.0019198901 -0.22734684
0.10748231 0.0019198901 0.23926391
0.12133636 0.150498 -0.14359862
0.004161106 -0.0210032 0.28417331
0.22689968 0.061360009 -0.067777216
0.13246205 0.166086 0.0859266
0.17113316 -0.0210032 0.14760734
0.23626052 -0.02332323 0.022467142
0.22659506 0.15448281 -0.017338818
0.16124037 0.0019198901 -0.076465093
0.19833633 0.150498 0.28289753
0.14597511 -0.021003202 -0.27519226
-0.13369823 0.00051274244 -0.0027634259
0.17741288 0.150498 -0.1479785
0.065067045 0.047148183 0.044801496
0.11877473 0.169754 -0.16996367
-0.070991486 0.003833123 -0.032182865
0.027385222 0.15257165 0.19484037
0.12212437 -0.0210032 0.28273731
0.10166078 0.0019198901 0.25684947
0.066135719 0.166086 -0.050067082
0.063536927 -0.0210032 0.082360424
0.20391978 0.020634692 0.055546641
0.277482 -0.015896115 -0.02471658
0.035962075 -0.0210032 0.2480922
0.030834408 0.0019198901 -0.033042736
0.067818999 0.0019198901 -0.063649572
0.10997839 0.166086 -0.015506234
0.21772806 0.166086 -0.26742417
0.11067895 -0.0210032 0.19491115
0.11058834 0.166086 0.23487914
0.1306708 -0.021003202 -0.30283767
0.19809072 0.150498 0.28642365
0.17137963 0.166086 0.12370956
0.21663728 0.166086 -0.31368586
0.11225237 0.169754 -0.27125612
0.18776859 0.166086 0.28004858
0.059562024 0.0019198901 -0.094536483
0.075705431 0.166086 -0.081644274
0.22405723 0.16608602 -0.11054148
0.13083382 -0.033758439 0.065196089
0.13967256 0.046489008 0.051043604
0.081467606 0.150498 -0.14061429
0.10965731 0.0019198901 0.06444665
0.13849604 0.150498 0.063724004
-0.22696252 0.027743265 -0.0067522065
0.093348257 0.0014223396 0.035357781
0.27931601 0.019105222 -0.05856077
0.053589001 0.150498 0.001187183
0.099312276 0.0019198901 0.022234555
0.1729807 0.166086 -0.028325858
0.051958967 0.0019198901 0.07380861
0.048062116 -0.13207252 -0.076874048
0.037742577 0.16608599 0.11419532
0.076674126 0.166086 0.090406433
0.12269459 0.150498 0.011187464
-0.061867308 0.024540992 -0.047478594
0.069320232 0.0019198901 -0.010638118
0.26367188 0.061078317 0.057509392
0.090077765 0.0019198901 -0.12660837
0.080092236 -0.0210032 0.13780868
0.21771225 0.166086 -0.016467605
0.070572585 0.0019198901 0.09952049
0.13319522 -0.021003198 -0.15408432
0.097636707 0.091127649 -0.015645517
0.21151629 0.150498 0.16320336
0.080579996 0.071696833 -0.047729861
0.16745548 0.150498 -0.0041301046
0.043867517 -0.04284757 -0.059081517
-0.0047467733 0.0019198901 -0.17517613
0.068883173 0.166086 -0.30642551
0.025575088 -0.12098883 -0.074591421
-0.045599319 -0.0063928775 -6.5977511e-06
0.014453579 -0.015673507 0.36025047
0.12061491 -0.047197413 0.06685622
0.19344763 0.150498 0.043015726
0.022502936 0.15099241 -0.2201336
0.21187393 0.166086 -0.08173997
0.19900945 -0.015382521 0.2404452
0.10794397 0.150498 -0.081151664
0.114075 0.150498 -0.10863961
0.15888703 0.169754 0.20631549
0.07144171 0.166086 -0.089239448
0.28940201 0.04710231 -0.05726786
0.058799304 0.169754 -0.22707394
0.13819104 0.150498 0.20032668
0.16676524 0.150498 -0.34712926
0.19977263 0.150498 -0.079364814
0.058567241 -0.16595644 -0.057572663
0.27610701 0.054275423 0.025687335
0.16949494 0.150498 -0.062960804
0.076982148 -0.0210032 0.090043604
0.19590083 0.150498 0.04906413
0.087671794 0.0019198901 -0.25777131
0.042497978 0.150498 0.2150722
0.085982949 -0.070382975 -0.063128456
0.17995121 0.0019198901 0.080491267
0.19928125 0.0014102076 0.26355311
0.032636832 0.0019198901 0.15624803
-0.0017391117 0.0019198901 -0.12383355
0.03043863 0.150498 0.14302555
0.066984788 -0.0210032 -0.015396002
0.04360465 -0.021003198 -0.1011493
0.16584627 0.150498 -0.13965052
0.016984269 -0.021003202 0.060391512
0.020580102 0.0019198901 -0.18642887
0.02243779 0.15750726 -0.22567083
0.18061081 0.150498 0.28663197
0.2125348 0.057205603 -0.068226203
0.028611649 0.166086 -0.14487703
0.07133764 -0.00036565785 0.35617498
0.11530776 0.166086 -0.021071475
-0.27064425 0.022176472 -0.027393686
0.17683224 0.0019198901 -0.1602709
0.21078801 0.06051781 -0.066699564
0.10223406 0.0019198901 -0.082305126
0.085224599 -0.13190031 -0.0618698
0.10180397 0.150498 -0.34856051
0.13312265 0.0019198901 -0.10149933
0.2358333 -0.02920663 0.003075053
0.2699801 0.051977694 -0.074712172
0.092377976 -0.082046859 0.070779398
0.11814486 0.169754 -0.19112542
0.15160838 0.150498 -0.28558338
-0.22595888 0.0441636 0.022865316
0.065014146 -0.0210032 -0.23558792
0.070899189 0.166086 0.20790191
0.055222034 0.150498 0.21827185
-0.073442109 0.075324744 -0.021042753
0.28884771 0.012167175 -0.038225822
0.014248734 0.0019198901 -0.096083589
0.13966358 -0.0210032 0.11523446
0.14615804 0.092787735 -0.025822844
0.11253946 -0.0210032 -0.2310797
0.21124057 0.150498 0.25957173
0.13526705 0.0019198901 0.095378652
0.13721058 0.166086 0.13258858
0.097591341 -0.0210032 0.18558697
0.080173418 -0.01235362 -0.34889135
0.11193697 0.169754 -0.2185287
0.052772287 -0.0098659666 0.015735168
0.044088606 0.166086 0.17091256
0.022356762 0.0019198901 0.075269245
0.19872935 -0.0210032 0.24976717
0.053094823 -0.1051396 -0.078376539
0.18746749 0.150498 -0.10827352
0.01552048 -0.0023995577 0.36029249
-0.27247605 0.05766784 -0.0055503007
0.18817532 -0.0210032 -0.12734985
0.15863636 0.166086 -0.29993233
-0.20098972 0.067158483 -0.010565958
0.090563193 0.150498 -0.27025342
0.03790798 0.166086 -0.32669216
-0.2314931 0.0605327 -0.0054351781
-0.2417966 0.074763462 -0.0048636273
0.05892875 0.055577334 -0.055300623
0.15320377 0.0019198901 -0.24694249
-0.19684902 0.039271425 -0.0062892283
0.12658055 -0.0210032 -0.12687281
0.089149706 0.0019198901 0.22688578
-0.26835421 0.0420711 -0.0017009797
0.1816822 -0.0210032 0.20290317
0.065079831 0.166086 -0.27477884
0.028356809 0.1569446 0.27742124
0.067036793 0.166086 0.13229096
0.11675031 0.169754 -0.21835735
0.13606741 0.166086 -0.25977725
0.066230178 -0.10123128 -0.059755173
0.28940201 0.066831738 0.017475326
0.15935022 0.030054206 0.24220377
0.17650259 0.150498 0.11504485
0.24539573 -0.014950726 0.036575798
0.17470908 0.166086 -0.24956319
0.19612604 -0.014387134 -0.0046742097
0.078525066 -0.10496309 0.091664478
0.079729967 0.16608599 0.3089633
0.12833245 0.0019198901 -0.093142331
0.22195199 -0.027333222 -0.022246467
0.16638419 0.096073538 0.0075203758
0.078535333 -0.021003202 -0.33124384
0.13655557 0.166086 -0.24678934
-0.0070849089 -0.0066086082 -0.1325551
0.073525697 -0.16243036 0.094192222
0.07954295 -0.010277599 0.35466871
0.17368451 -0.0029954182 0.32100311
-0.0067509566 -0.01919977 -0.10417047
0.10819179 0.166086 0.24192551
0.036438141 -0.091307461 -0.076875038
0.19928607 0.150498 -0.25188655
0.23347571 0.031772565 0.059451595
0.077469245 0.0019198901 0.091711834
0.22249606 0.150498 -0.19841464
0.14866075 0.169754 0.21555208
0.2717469 -0.0093153641 -0.059152454
0.19459452 -0.0210032 -0.044926986
0.0065055424 0.0019198901 -0.0055128783
0.027646596 0.16546388 0.21705605
0.069068484 0.16608599 -0.18082097
-0.007024264 -0.0210032 -0.19263707
0.054821726 -0.069895223 -0.059463792
0.044473551 -0.0210032 -0.27965125
0.046098161 -0.0038980807 -0.037840612
0.20861106 -0.027981412 -0.0089613795
-0.0016147682 0.0019198901 0.061973237
0.16035768 0.0019198901 0.104995
0.044195294 0.0019198901 0.13820812
0.15241532 0.052307252 -0.019690514
0.04158359 -0.0210032 0.076146848
0.18321036 0.150498 0.040855534
0.16037375 0.150498 -0.21850348
0.047231607 -0.07711295 0.094422601
0.23986199 -0.02934083 -0.018220728
0.11061832 0.0019198901 0.24851181
0.11527788 -0.021003202 -0.011208937
0.05469941 0.0019198901 0.027633477
0.19948703 0.027627263 0.05610159
0.028820727 0.15156208 0.31685242
0.21284589 0.150498 0.19325984
0.062829912 -0.13319716 -0.078580663
0.277024 0.014993416 0.023264516
0.10014105 0.166086 -0.11735733
0.14955577 0.166086 0.24606036
0.033692297 0.16608599 -0.17374739
0.05965985 0.0019198901 -0.11776426
0.20773834 0.036755599 0.057940912
0.028229993 -0.0210032 -0.19441679
0.20700888 0.150498 0.043888241
0.24518135 0.0034443191 0.052285403
0.28705367 -0.0068604988 0.04897413
0.027463878 -0.09469974 -0.07570067
0.17156979 0.0019198901 -0.042313736
0.029805381 0.150498 -0.15311219
0.21351036 0.166086 0.21722567
-0.14177081 0.071723729 -0.013000509
0.07683526 0.16608599 0.031695046
0.11668925 0.0019198901 0.18822612
0.084147274 -0.10502423 -0.08204852
0.11039308 -0.0210032 -0.18596958
0.025897607 -0.008246297 0.36017564
0.15428931 -0.023427105 -0.0095122959
0.19762978 0.150498 -0.20784485
0.11197945 -0.12641254 -0.083488494
0.089410566 -0.0210032 0.2745567
0.07207942 0.0019198901 -0.061625991
0.074329786 0.150498 -0.17806983
-0.082402267 0.0053850575 -0.03267213
0.11685101 -0.016852988 -0.34381032
0.10498537 0.091660909 -0.016200311
0.18481658 0.150498 -0.015916942
0.13815656 0.169754 0.13863608
0.06969139 -0.12169722 0.024454739
0.13848065 0.150498 -0.053161491
0.0062413178 -0.021003202 -0.2348299
0.13543534 0.166086 0.18167084
-0.21004802 0.065561906 0.0017726254
0.21051504 0.166086 0.13046141
0.27274832 0.00027244692 0.052972451
0.20077403 0.166086 -0.22898236
0.12902637 0.0019198901 -0.10049713
0.069414176 0.16608599 -0.15028803
0.18780282 0.150498 0.27529553
-0.004994635 0.0019198902 -0.28025177
0.12970142 0.166086 0.22989938
0.11915537 0.150498 -0.18711054
0.090747803 -0.016001306 -0.022680739
0.1545217 0.0019198901 -0.19711947
0.1199618 0.166086 -0.015505869
0.013033628 0.0019198901 0.27116895
0.13070568 0.150498 0.17479481
-0.051984672 0.038021192 0.03634591
0.038423479 0.166086 -0.13296831
-0.21261188 0.0441636 0.033511698
0.10432796 0.060761794 -0.057172693
0.16989407 0.150498 -0.24811503
0.08938992 0.150498 -0.27148226
0.096415959 0.150498 0.30689582
0.19804329 0.169754 -0.24349958
0.086431503 -0.021003198 0.13447422
0.046103336 0.08445935 -0.011394403
0.045244765 -0.0210032 0.00308045
0.021028683 0.039436951 -0.055823393
0.11731406 0.150498 0.26091507
0.094972774 0.150498 0.11752986
0.20078953 0.10041443 -0.0038907491
0.13270812 0.150498 0.11663647
0.082586281 -0.12029149 0.026166506
0.19693907 0.0019198901 0.17118323
0.0077949213 0.0019198901 0.033986621
0.027903525 0.0019198901 0.31479958
0.14344263 0.0019198901 0.053378619
0.1114985 0.16608599 -0.22393087
0.1838958 -0.0210032 0.18682335
0.14861396 0.037008937 0.053029519
0.049285322 0.0019198901 -0.017281838
0.0941239 0.076707855 0.031139037
0.034766559 0.0019198902 0.24838622
-0.13364832 0.069115616 -0.023163982
0.12748958 0.0019198901 0.30841905
0.036165535 -0.0210032 0.15023883
0.14361693 0.150498 0.2111057
0.064544089 0.16608602 -0.22195929
0.14593385 0.150498 -0.27777559
0.098556682 0.166086 0.032622259
0.11225243 -0.021003202 -0.11694366
0.22446407 0.16552861 -0.19844727
0.28940201 0.0013314509 -0.049714208
0.071023673 -0.12483081 0.0059300512
0.041294158 0.150498 0.1496744
0.064874671 -0.036539998 -0.061775729
0.12105138 0.0019198901 0.046063937
0.1815508 0.0019198901 -0.20546252
0.21688119 0.150498 0.066785708
0.070665628 0.0019198901 0.056485496
0.0330991 -0.14663747 -0.055215307
0.14698222 0.150498 0.07506977
0.22473761 0.15662524 -0.17519775
0.10686707 0.04242162 -0.062512554
0.28940201 -0.027383124 -0.020358905
0.2857894 0.022342591 0.062526137
0.08802069 0.166086 0.25961357
0.097113207 -0.13886213 0.072135091
0.022608444 -0.00074268924 0.025156448
0.093901336 0.150498 0.25362933
0.15890484 -0.0210032 0.25781631
0.076975167 0.049005255 -0.012387025
0.059898295 -0.0210032 0.039386112
0.1734308 -0.0032409453 0.32114604
0.28181887 -0.0094876261 -0.060058743
0.19317123 -0.010231661 -0.25579765
0.015123562 -0.0210032 0.26659957
0.022821367 0.0082563916 -0.046970204
0.10906017 -0.014809497 0.34764013
-0.0057133362 -0.013737778 -0.01597685
0.19877283 0.150498 0.031885222
0.04685216 -0.021003202 0.25008056
0.062790841 -0.017908694 -0.34932354
0.13895026 -0.015704425 0.020060441
0.077086084 0.166086 0.1469944
0.12363258 0.150498 0.19242394
0.028337546 0.0019198901 -0.30012342
0.23278883 -0.028589865 -0.019492345
0.085020989 0.120175 -0.085960574
0.16893043 0.166086 0.25546914
0.0093637304 0.0019198901 -0.20357034
0.051165666 0.15049799 0.094980069
0.22180122 0.150498 0.090272613
0.09606465 0.166086 -0.044877764
0.11225194 0.0019198901 -0.18492155
0.030159002 0.0019198901 -0.016167238
0.076948389 0.0019198901 -0.23723304
0.085405447 0.150498 0.30631548
0.025721604 0.15517333 0.053439692
0.20911357 0.150498 0.10920922
0.1774442 -0.0210032 0.080217555
0.15713625 0.169754 0.27636027
-0.23942189 0.0420711 -0.039173122
0.16056721 0.169754 -0.28176409
0.087870225 0.166086 0.10948916
-0.15571953 0.0061235875 -0.023412358
0.026771288 0.16069566 0.14265867
-0.27456436 0.0441636 0.098321646
0.28940201 0.048885446 -0.076101258
0.048447739 0.166086 -0.27217144
0.14687778 0.0019198901 -0.30446619
0.1236069 0.0019198901 -0.087701932
0.044710696 0.089657858 -0.008517528
0.28940201 0.064007789 -0.066906206
0.10590339 0.150498 0.074235052
0.030886067 0.166086 -0.020569287
0.18419351 0.150498 0.26597157
0.20400199 0.150498 -0.23690449
0.026097145 0.150498 0.058677241
0.10086145 0.150498 -0.33126786
0.277024 0.033740632 0.034584694
0.11619455 0.012953025 -0.058443978
0.12206704 0.0019198901 0.11187739
0.043763179 0.093194306 -0.0052138092
0.15283018 -0.0210032 -0.18297037
0.19528651 0.0015066696 -0.076025814
0.17612991 -0.021003198 -0.044445716
0.051759556 -0.098690778 -0.078436196
0.1626935 0.166086 -0.16488791
0.10047682 0.166086 -0.27993309
0.16436574 0.150498 -0.31483471
0.19161794 0.0019198901 -0.22671244
0.28940201 -0.011238665 -0.049531534
0.17957194 0.150498 -0.07866405
0.011566162 -0.011740331 -0.0047999984
0.024592845 0.16494192 -0.042500056
0.09146741 0.150498 -0.022314338
0.11166738 0.150498 0.23984393
0.0063065421 -0.0080544539 0.35992947
0.13300425 -0.12515303 0.070276245
0.092184797 0.166086 0.14616476
0.15900633 0.0019198901 0.12102136
0.16287956 0.0019198901 -0.1124462
0.043607984 0.150498 0.23388597
0.083772063 0.150498 -0.32506585
-0.028311364 0.048107591 -0.050611291
0.18487667 0.0019198901 -0.29477572
0.18965495 0.150498 -0.32636368
0.21316722 0.049360991 -0.070369311
0.11327472 0.060820084 -0.057940688
0.15699039 0.166086 -0.21036899
0.028953092 0.0019198901 0.12870279
0.058051802 -0.14770997 0.095524058
0.27931601 0.026845694 -0.051151808
0.097563267 0.034898583 0.048649788
0.12810566 -0.019433746 -0.02237938
-0.024000466 0.028983802 0.037841462
0.00032525975 -0.0210032 -0.16003484
0.057178661 0.169754 -0.21787159
0.068625845 -0.0210032 -0.026671268
0.15760584 0.16608599 0.23908019
0.046317115 0.169754 0.21840158
0.061248731 0.0019198901 -0.18764369
-0.26665768 0.041530475 -0.031812444
0.14020331 0.0019198899 0.099664442
0.084885098 0.0019198901 0.0041394792
0.13618274 0.0019198901 0.15688042
0.12106176 -0.0210032 -0.1327264
0.027661633 0.166086 -0.097447067
0.16878568 0.0019198901 0.14918062
0.12012247 0.15133862 -0.35907876
0.073053405 -0.11065116 0.043268804
-0.023064241 0.016849987 -0.047728401
0.059748404 0.166086 -0.11492163
0.21523774 0.150498 0.0021656319
0.11414552 0.0019198901 0.18912606
0.03976059 0.150498 -0.22984448
0.11225279 0.169754 0.19804415
0.14603594 0.150498 0.057224654
0.18694602 0.166086 -0.26759031
-0.2669377 0.0441636 0.065453321
0.046355717 0.169754 -0.27503476
0.038867097 -0.13877305 0.079012692
0.15204234 -0.0210032 0.29509953
-0.0045103291 -0.01061338 0.086273998
0.066851802 -0.11427322 -0.059388973
0.0077857249 -0.0210032 0.21925101
0.0048860763 -0.0210032 -0.015993098
0.010211056 0.053731188 0.038111687
-0.084288105 0.076292649 0.00067930191
0.083370656 0.15065821 0.34767255
0.13556956 0.169754 -0.20142344
0.077676676 -0.021003198 -0.0033308449
0.02889635 0.15049799 -0.33201435
0.09461683 -0.021003202 -0.20844531
0.088489912 -0.089703053 0.072083846
0.02827297 0.0019198901 -0.079222105
0.10204868 -0.058058619 -0.065441757
0.056103148 -0.00053806102 -0.34917009
0.27797845 0.079322375 -0.062231325
0.092909679 0.0019198901 -0.16042519
0.062525682 0.169754 -0.1945044
0.052073702 0.166086 -0.33020979
-0.080029733 0.020920344 -0.044370774
0.072972178 -0.11005565 0.019525338
0.18260664 0.095783725 0.01274056
0.10186503 0.169754 -0.18873435
0.10732369 -0.094887011 -0.066148229
0.16781494 0.0019198901 -0.32670867
0.093882345 -0.12318441 -0.063186206
0.23085351 -0.015241244 0.034243155
0.098048054 0.065822743 0.040398043
-0.00038263109 -0.0210032 0.09242171
0.28197846 -0.017167997 -0.028483793
0.10639783 0.166086 -0.25968948
0.11312096 0.150498 -0.226276
0.14471352 0.166086 -0.073260516
0.088439181 0.166086 -0.28051978
0.11061183 0.166086 0.096177474
0.18638009 0.166086 0.1561649
-0.12264691 0.040208362 0.030227926
0.19464567 -0.015944902 -0.13048816
0.17456532 0.150498 0.0029569417
0.16405782 0.150498 -0.16617909
0.20713922 0.150498 0.24051192
0.099259622 0.169754 0.1374554
0.049885109 0.0019198901 -0.15449415
0.1127952 0.16608602 -0.06824109
0.089273736 -0.021003198 -0.11339195
0.063342735 0.0019198901 -0.17454377
0.05721499 0.166086 -0.10183188
0.091931127 0.150498 0.10965133
0.19560251 0.076306604 -0.056052044
0.12274428 0.169754 -0.14799467
0.10300336 0.0019198901 0.28436881
-0.02714188 0.031076461 -0.051497884
0.11527619 0.090230033 0.011756497
0.18313906 0.150498 -0.0086175054
0.21783297 0.012099505 -0.067089342
0.10200397 0.150498 0.23173006
-0.0074307844 0.0097850757 0.031383894
0.18154356 0.150498 0.13660698
0.14362416 -0.00021963047 0.039281547
0.014923282 0.0019198901 -0.32263425
0.12337407 0.093399152 -0.014520887
0.06297113 0.150498 0.045343202
0.10498378 0.0019198901 -0.11145232
0.024388924 0.16287279 -0.05983261
0.1745995 0.0019198901 -0.21618345
0.12806183 0.166086 0.014499199
0.28292629 0.087260574 -0.056395844
0.21389498 0.166086 0.17946181
0.15539359 -0.021003202 -0.059512228
0.13864937 0.150498 -0.056716416
0.054127071 0.150498 0.023611806
0.10865052 0.051398195 0.04779369
0.033737093 0.0019198901 0.11383606
0.16039674 0.166086 0.18005736
-0.077595055 0.042079847 0.033698499
0.20349386 0.166086 -0.029338723
-0.28115249 0.018978992 -0.023682173
0.23416361 0.095324829 -0.038509313
0.10202105 0.0019198901 0.088902712
0.022567196 0.0019198899 0.070442587
0.10272819 0.084878251 0.021647194
-0.0092066582 -0.0019068272 -0.31289539
0.16168305 0.096274748 -0.064647116
-0.073258772 0.077837005 -0.0041390317
0.12636495 -0.0210032 0.14445676
0.20255491 0.166086 0.0902372
0.14889179 0.150498 0.18293431
0.10423161 0.150498 -0.24197125
0.10850222 0.150498 0.079093724
0.086169936 0.166086 -0.046440158
0.15378727 0.09219151 -0.028893106
-0.0022450029 -0.0061062318 0.27881894
0.056567363 0.169754 0.16762677
0.22842064 0.15191893 0.13785569
0.083042607 0.169754 0.22320692
0.07135503 0.166086 -0.19969887
0.080449849 -0.073366098 -0.068199217
0.077654459 0.08068689 -0.045077074
0.051202279 -0.0210032 -0.097829096
0.22368912 0.150498 0.23276295
0.078887627 -0.0210032 -0.34341699
0.16268581 0.166086 -0.059225805
-0.18507315 0.015346493 -0.030975644
0.039800886 0.166086 0.2015233
-0.0050127059 0.025310183 0.038924299
0.079739518 -0.0210032 0.23281826
0.10516036 0.0019198899 -0.34508148
0.039207093 0.0019198901 -0.095691852
0.089978978 0.166086 0.32368365
0.1526766 -0.0210032 -0.060717657
0.058017612 -0.021219384 0.073374957
0.096392348 -0.017544037 -0.34739044
0.049244102 0.150498 -0.31920156
0.078575581 -0.09609741 0.073470533
0.24977446 0.030975871 -0.074331455
0.080577306 0.150498 0.015086267
-0.16890682 0.040957894 -0.039952602
0.18873438 0.169754 0.17972538
0.18851835 0.166086 -0.21326256
0.046422459 0.150498 -0.302109
0.083386354 0.166086 -0.24235204
0.12963793 0.150498 0.29901358
0.050824538 -0.12140402 -0.058159769
0.24507208 -0.028424826 -0.025674608
0.14716759 0.086459331 0.025557991
0.034194741 0.0019198901 0.10544974
0.10543598 -0.0210032 0.32877943
0.10769653 0.150498 -0.21584794
0.10099989 -0.021003202 -0.0058862139
0.026286483 0.150498 0.098149493
0.053487629 0.150498 0.03975391
0.19635531 0.150498 -0.062522158
0.14371532 -0.0210032 0.22528632
-0.082409874 0.042131938 0.033294391
0.15805721 -0.021003202 -0.07510931
0.19161701 0.150498 0.13836642
0.026358992 0.0019198901 0.20456555
-0.0084452741 -0.020545775 -0.24818069
0.073708437 0.0019198901 -0.080649436
0.13833189 0.150498 -0.024703436
0.055878513 0.150498 0.13836783
0.2113688 0.034310531 0.057961836
-0.050977655 0.024074871 -0.048249669
0.077553362 0.150498 -0.04586957
0.021127548 -0.0210032 -0.16463709
0.20353228 0.169754 0.1853472
0.14373745 0.150498 0.2937161
0.16508175 0.150498 -0.075592645
0.060796659 0.16608602 0.29364413
0.062821455 -0.057959922 -0.060811136
0.08362288 0.16608599 0.045462616
0.22332713 0.16608599 0.14045054
0.069664486 -0.012569106 -0.34925154
0.18559274 0.169754 -0.21771212
0.16993023 0.166086 0.0011222623
-0.20363124 0.014176901 -0.027840445
0.18106326 0.150498 -0.0075880382
0.18512847 -0.0210032 0.23776414
0.19859891 0.16608602 -0.2103352
0.13307798 -0.0210032 0.030291049
0.18586537 0.166086 0.049502123
-0.10983354 0.043114252 -0.044542573
0.28824222 0.055222079 0.00081475795
0.10780548 0.0019198901 -0.24905336
0.012421396 -0.021003202 -0.1544071
0.17996597 0.0019198901 -0.18713522
0.13585122 -0.0210032 0.293118
-0.0029966831 -0.0029473859 0.21492839
0.13288863 0.0019198901 -0.091071345
0.20167312 0.166086 0.16333692
0.11382002 0.0019198901 -0.30023509
0.073055796 0.0019198901 -0.11859466
0.12153809 -0.021003202 0.15779547
-0.21154413 0.015067952 0.014298527
0.15941392 0.166086 0.023731587
0.071080089 0.150498 0.33659214
0.19611961 0.04708882 -0.069261916
-0.28433102 0.055501532 0.0079230191
0.18225047 0.166086 0.051033046
0.090183541 0.031029101 -0.061171509
0.12193531 0.169754 -0.1954079
0.28940201 0.013400549 -0.062004417
-0.0037604598 -0.0210032 0.011147067
0.19459005 0.150498 0.037239954
0.17026362 0.150498 -0.029387778
0.19378997 0.166086 -0.29253045
0.060592979 0.087655701 0.0051627629
0.14672568 -0.0210032 0.026948275
0.10424907 0.0019198901 -0.091800556
0.19154929 0.169754 -0.2156153
0.1803107 -0.021003198 0.11186115
0.03365913 0.019122213 -0.053691797
0.079743907 0.150498 -0.30379534
